# 3D point list with one line of data per point:
#   POINT3D_ID, X, Y, Z, R, G, B, ERROR, TRACK[] as (IMAGE_ID, POINT2D_IDX)
# Number of points: 312, mean track length: 8.654441260744985
1608 24.285151745492072 -2.5027748515101416 49.962371600581939 21 19 16 0.19263691029374824 44 2605 51 2509 60 2572 48 2612
1609 -8.8836667053685279 -2.505757799969806 21.605416577939014 212 71 104 1.0330468710788794 44 2610 51 2512 60 2576 48 2616
1610 19.112396761041175 1.1168397858674484 61.403587151472593 12 35 68 0.33288253752958896 42 2787 44 2560 60 2584 58 2416
1611 16.102380364939872 4.3596170741800515 62.449139924301257 32 28 3 0.51086384667434115 44 2616 51 2518 60 2587 48 2625
1612 -0.72342595543582333 4.5979206337658143 12.134437775911088 162 156 155 0.42037463752334875 42 2811 44 2631 60 2595
1613 20.052361850914419 -5.30164608483667 42.695047220093585 52 152 255 0.49053167161640815 51 2587 60 2648 45 2920
1616 6.565784430027195 -2.803595309614805 22.628372953233541 142 1 3 1.3095466334878225 2 2394 3 2394 10 2523 16 2567 44 2554 38 3751 60 2530 13 2646 12 2646 11 2438
1617 -43.953924350776362 -20.54925179363817 54.199955135004373 129 112 92 0.35899153030552516 38 3737 42 2771 44 2543 58 2392 13 2824 6 3821 12 2824 8 2849 7 2849 20 2696
1618 -33.374093388022359 -16.530294898280392 71.43786596277026 91 81 71 1.0608420995930261 38 3747 42 2778 58 2404
1619 -34.543873186885136 -14.532453069517407 67.61522082873411 114 104 95 0.9532764807732369 38 3748 42 2780 44 2551 58 2405
1620 -33.297751347551838 3.2501681062889611 36.937432804753946 114 98 42 1.3217729103882809 42 2791 44 2562 60 2538 58 2419 48 2628
1621 -6.6297787710910656 4.5675939031759514 17.59111366846448 71 61 59 1.4913788252267324 44 2623 58 2428 48 2631
1622 20.342721825019161 -24.636708291938859 74.859134557386042 168 195 248 0.51813582225697619 6 3997 9 2828 10 2953 58 2498 3 3039 8 2977 7 2977 5 3045 4 2950 11 2896 1 2837
1623 20.330245242589374 -24.634137736220943 74.841868264646109 168 195 248 0.53566778653086389 6 3998 9 2829 58 2499 3 3040 8 2978 7 2978 5 3046 4 2951 1 2838
1624 -41.56655315222239 -24.083758350536304 54.192173083653458 23 18 15 0.2594179929929829 9 2803 10 2923 58 2501 2 3008 3 3008 13 2924 12 2924 8 2945 7 2945 5 3011 4 2918 11 2866 1 2810
1625 -41.575408238731256 -24.088277068442711 54.20246331844951 23 18 15 0.24940955747616014 6 3965 9 2802 10 2922 58 2502 2 3007 3 3007 13 2923 12 2923 8 2944 7 2944 5 3010 4 2917 11 2865 1 2809
1626 -40.086642386854585 -20.102974784803948 56.172331545283349 170 154 132 1.4914270278220119 9 2830 58 2504 5 3047
1629 0.74373019609202362 -26.289189994148483 79.025589656068462 207 216 243 0.59635086611449917 6 3996 9 2827 10 2952 58 2500 3 3038 8 2976 7 2976 5 3044 4 2949 11 2895 1 2836
1635 -39.748300275735076 -12.70404791846039 59.613535273469921 4 8 0 0.60088317345984321 44 2600 60 2527 48 2609 58 2407
1636 -8.1571023182616305 -2.4134279522002586 20.419340049650614 192 83 110 0.55895596776077994 44 2611 51 2513 48 2617
1637 -12.543338326344726 -0.79683284369083929 19.504872127105465 0 0 0 0.67402436852993053 44 2503 60 2537
1638 5.3989144331116528 5.0409522569436884 14.948311257153692 176 170 170 0.17979079294257805 44 2628 51 2551 48 2635
1641 -30.263136103686136 -27.076457170280282 60.596561689708288 72 53 30 0.28377580445688311 2 1254 3 1254 6 2179 10 1798 13 1118 12 1118 4 1097 1 1015
1642 -28.569445202034856 -26.282270066873497 59.535868912922638 63 41 18 0.28140721121292683 2 1255 3 1255 13 1122 12 1122 8 1137 7 1137 11 1068 1 1019
1643 -31.214696973020683 -26.429755139680726 59.175832610857384 43 26 6 0.23536365003881221 2 1257 3 1257 6 2183 13 1124 12 1124 11 1069
1644 -29.620020199435544 -25.953589245127464 59.821886104517517 72 52 26 0.22179004272542657 2 1261 3 1261 6 2191 13 1129 12 1129 8 1143 7 1143 5 1230 1 1026
1645 -33.538101491691236 -25.823343388740064 59.24569836701852 85 71 62 0.58525206842444433 42 1236 13 1136 12 1136
1646 -30.021329278040252 -25.365564759481106 59.748531857857188 73 54 29 0.25366985713071533 2 1265 3 1265 6 2199 13 1138 12 1138 8 1148 7 1148 5 1237 4 1115 11 1081
1647 -29.55226713822514 -25.706717518003007 61.364510285116289 59 42 14 0.29942425400462824 2 1267 3 1267 6 2205 13 1142 12 1142 8 1149 7 1149 5 1239 4 1117 1 1036
1648 -17.582817871042419 -24.861392466041575 63.469092629005594 26 33 56 0.23485011218272051 2 1270 3 1270 6 2208 13 1146 12 1146 8 1152 7 1152 5 1242 4 1122 11 1086 1 1039
1650 -31.315075962226562 -25.940210875892657 63.13965609716859 45 36 4 0.85858396347931853 42 1246 13 1156 12 1156 4 1836 1 1044
1651 -27.045156215636734 -23.983989044583431 59.677307765152641 13 15 0 0.53129955970793996 2 1275 3 1275 6 2216 13 1157 12 1157 8 1159 7 1159 4 1126 11 1760 1 1046
1652 -24.557529646385611 -23.104054470810333 61.053001825298772 25 30 10 0.14764259737721913 2 1290 3 1290 13 1174 12 1174
1653 -21.10582652504943 -23.027587475183225 63.401222915826587 229 233 252 0.27393122987895108 2 1295 3 1295 6 2235 13 1175 12 1175 8 1172 7 1172 5 1271 4 1149 11 1104 1 1066
1654 -29.962120841909787 -22.62271830723191 59.594421525067887 48 48 25 0.13454063443132877 2 1296 3 1296 13 1177 12 1177 8 1173 7 1173 5 1272 4 1152 1 1068
1655 -39.903193482193039 -22.653547415694888 55.128908676172827 104 90 76 0.57126904714894655 42 1276 13 1181 12 1181 4 1151 11 1107 1 1067
1656 -22.591564771759149 -22.132655722597772 61.891520324312857 32 37 12 0.37581888205597075 2 1299 3 1299 6 2239 13 1182 12 1182 8 1174 7 1174 5 1275 4 1157 11 1109 1 1071
1657 -21.024804380016395 -23.524263608554406 66.960985328256527 241 241 243 0.3271625239256904 42 1272 13 1184 12 1184 5 1280 4 1161 11 1112
1658 -22.181959276186447 -22.523069536796942 65.470068812717329 6 13 0 0.49636359126242213 42 1279 13 1193 12 1193 8 1186 7 1186
1659 -41.139941397449704 -21.51159289551245 53.894243321164794 25 15 5 0.32806394095373853 2 1308 3 1308 6 2253 13 1194 12 1194 8 1184 7 1184 5 1284 4 1169 11 1124
1660 -33.802907155544098 -21.220775915668021 57.155423092491077 18 17 0 0.16231540064825686 2 1311 3 1311 6 2257 13 1196 12 1196 11 1126 1 1084
1661 -30.943790117974384 -21.15878869920201 58.84485018115307 83 70 58 0.11753606895394013 2 1315 3 1315 6 2258 13 1198 12 1198 8 1189 7 1189 5 1289 11 1128 1 1086
1662 -19.978599637725306 -20.874717843505628 62.801248803198135 18 24 56 0.44365907375446068 2 1318 3 1318 6 2262 13 1200 12 1200 8 1903 7 1903 5 1292 4 1178 1 1092
1663 -37.594697125125847 -19.790408947554251 56.350264035012209 22 18 0 0.23057184128617561 2 1329 3 1329 6 2284 49 1659 13 1219 12 1219 1 1103
1664 -28.063956749296562 -20.253675702316464 63.243673357935393 28 24 14 0.3545662546760418 2 1333 3 1333 13 1223 12 1223 8 1211 7 1211 11 1154
1665 -38.086951745957975 -19.661701083949527 57.174245684158869 162 158 129 0.20667800467402159 2 1998 3 1998 6 2948 13 1224 12 1224 8 1915 7 1915 5 1312 4 1871 11 1156 1 1800
1666 -25.806447147433087 -21.769767898000644 75.257403833786313 76 68 56 0.23018651259633027 6 2299 42 1321 13 1236 2 1345 3 1345 12 1236 8 1224 7 1224 5 1323 4 1205 11 1167 1 1117
1667 -39.473605366815207 -17.633609836454685 55.866207976069425 130 120 107 0.14794854635275062 2 2011 3 2011 6 2965 13 1244 12 1244 8 1927 7 1927 5 1991 4 1886 1 1819
1668 9.0466016677947607 -19.471773082591323 79.563799905213941 72 137 227 0.52553275138461941 42 1323 13 1246 12 1246 1 1133 4 1892 6 2973 7 1931 8 1931 9 1769 10 1872 11 1821
1669 -34.371277057231481 -17.519451731818503 59.088309186853756 93 92 73 0.16844365848001508 2 1359 3 1359 6 2312 13 1247 12 1247 8 1238 7 1238 5 1338 4 1215 11 1181 1 1122
1670 -35.618476850384162 -16.490160870989584 56.36834772398101 25 30 7 0.093448561277242825 42 1359 13 1256 12 1256 11 1190
1671 43.165478123820982 -18.332381974059398 83.154996181824558 169 196 225 0.58684129251428996 2 1384 3 1384 6 2329 42 1327 13 1260 12 1260 8 1258 7 1258 5 1357 4 1233 11 1195 1 1151
1672 -43.329434531392778 -17.351609962635646 57.654622778163272 100 90 81 0.48156564533352919 42 1369 13 1262 12 1262 11 1192
1673 -43.329434531392778 -17.351609962635646 57.654622778163272 100 90 81 0.48156564533352919 42 1370 13 1263 12 1263 11 1193
1674 -34.911262283408242 -16.046795576264362 58.874918760995151 20 13 1 0.18627297343417959 2 1388 3 1388 6 2334 13 1274 12 1274 8 1265 7 1265 5 1362 4 1235 11 1204 1 1153
1675 -36.648018670703827 -16.140624996699731 59.0529735398285 49 49 27 0.082405445369846245 2 1394 3 1394 13 1275 12 1275 4 1241 1 1158
1676 -38.556819041753393 -15.783702505699944 58.595980875277483 24 27 11 0.21606965064640724 2 1405 3 1405 6 2999 9 1793 13 1285 12 1285 8 1957 7 1957 5 2022 4 1248 11 1841 1 1170
1677 -32.674163813063352 -16.258620047848691 63.375907170786739 123 113 104 0.16059295669630907 2 1406 3 1406 13 1286 12 1286 4 1250
1678 1.3854149430755527 -3.5557104029002971 19.551183985835554 231 147 180 0.66250708784020718 6 2356 13 1295 12 1295
1679 54.035245010465005 -17.329136932648808 95.277598684571217 176 230 255 0.90930072863886491 42 1377 13 1296 12 1296 8 1293 7 1293 5 1384 1 1195
1680 -35.332489611518398 -15.500258543592395 64.166401512245315 65 50 41 0.56175185021722773 42 1410 49 1733 13 1299 12 1299 11 1228
1681 -31.717596998780348 -14.917748363363406 65.242142617132245 26 15 13 0.27747385981439254 42 1426 13 1310 12 1310 5 1388 1 1194
1682 -34.369729488844214 -14.129996525423309 63.637802105767889 73 57 47 0.22982707716295472 42 1438 13 1313 12 1313
1683 -47.385251977061145 -12.918381424100229 56.781025341452576 180 166 140 0.34463470705829335 42 1443 49 1755 13 1322 12 1322
1684 -35.870680819305797 -12.274951930971346 60.463058823042218 129 127 114 0.22760901387028717 2 2058 3 2058 6 3024 9 1815 13 1326 12 1326 8 1981 7 1981 5 2045 4 1938 11 1863 1 1869
1685 -9.1688310163482409 -3.4953118344983398 19.785451781383834 61 64 80 0.46312683245574482 2 1436 3 1436 10 1914 13 1327 12 1327 11 1862 1 1218
1686 -49.358692271854579 -12.031712705208047 57.923075767605354 162 150 126 0.033569203900181054 49 1764 13 1335 12 1335
1688 -49.71234940170492 -11.63869623986726 58.537364787931715 55 41 27 0.047180087898835689 42 1449 13 1346 12 1346
1689 -41.709761787199781 -11.285188287584317 62.788244467629397 33 23 13 0.33781841115514694 2 2080 3 2080 6 2408 13 1351 12 1351 11 1285 1 1253
1690 -2.786076339062558 -1.1882305668620718 10.982573383646535 0 0 0 1.1570741570985217 6 2403 13 1358 12 1358
1691 -46.301182199725318 -9.6059416904180654 55.614365682713355 163 155 150 0.65888862192728448 42 1460 13 1363 12 1363 11 1292
1692 25.738428405869346 -5.2605447356554764 56.092327057271312 94 161 229 0.68979650509441748 42 1452 13 1365 12 1365 4 1342 2 1476 3 1476 11 1297
1693 25.738428405869346 -5.2605447356554764 56.092327057271312 94 161 229 0.68979650509441748 42 1453 13 1366 12 1366 4 1343 2 1477 3 1477 11 1296
1694 -37.16065605169765 -6.9655317858687624 65.07318321675875 20 12 2 0.21839997196830066 2 1517 3 1517 6 3066 13 1386 12 1386 8 1395 7 1395 5 2092 4 1374 11 1331 1 1298
1695 26.880162448318039 -2.415536878687885 58.42997111242201 133 196 250 0.13229230802993783 6 2458 42 1483 13 1389 12 1389 8 1397 7 1397 5 1478 4 1375 11 1334
1696 26.880162448318039 -2.415536878687885 58.42997111242201 133 196 250 0.13229230802993783 6 2459 42 1482 13 1390 12 1390 8 1398 7 1398 5 1479 4 1376 11 1333
1697 26.41728061157259 -1.853452778541695 58.770840186926982 139 198 239 0.31219376976162905 6 2462 42 1489 13 1394 12 1394 8 1406 7 1406 5 1486 4 1384 11 1339
1698 27.948237091556653 -1.3312114812160278 57.470580323137753 17 17 7 0.29911741153985144 2 1538 3 1538 49 1798 13 1396 12 1396 8 1408 7 1408 4 1389 11 1911 1 1312
1699 -48.53009479355498 -4.2832302992631011 59.460330805930006 164 159 156 0.59144869644361764 42 1505 13 1407 12 1407 8 1418 7 1418 11 1348
1700 28.250812549057311 0.30327274327836329 62.166933790111102 2 13 31 0.54810328216166926 42 1509 13 1416 12 1416 8 1435 2 1561 3 1561 7 1435 4 1413 11 1362 1 1338
1701 27.012186901436973 0.82464613603955461 61.225754437258615 1 14 29 0.32011984088868972 42 1515 13 1424 12 1424 8 1439 7 1439 11 1374
1702 28.332414816434 1.6757466725063037 61.97468935896373 8 9 4 0.82780399074752142 42 1523 13 1433 12 1433 1 1352
1703 -48.057214520865188 -1.8941528272408956 57.375248089575244 66 56 47 0.16375510944175606 42 1525 13 1435 12 1435
1704 -36.532791414152619 -0.86481787287584744 65.565823989277789 90 81 37 0.27777031122157458 2 1593 3 1593 6 2527 13 1444 12 1444 8 1470 7 1470 5 1551
1705 25.597535718564409 3.3347566008157301 60.267044978944412 3 13 28 0.58359212012722939 49 1821 13 1448 12 1448 8 1478 7 1478 11 1404
1706 -30.004432396136195 0.77784794119064415 36.225272724839918 111 95 36 0.72521391907046007 42 1544 13 1465 12 1465 11 1416
1707 -11.804027841441901 0.70570177969272674 20.593908303060115 74 4 6 0.26363253459913616 2 1627 3 1627 13 1475 12 1475 5 1581 4 1477 11 1423
1708 -28.960842340218395 1.549921082679794 49.112448709875451 95 86 19 0.18504606423185166 2 1631 3 1631 6 2551 13 1481 12 1481 8 1506 7 1506 5 1584 4 1482 1 1407
1709 30.666340673973018 7.4282724502956494 53.935003984864643 75 72 17 0.8241263131233163 10 2024 21 3215 13 1494 12 1494 11 1965
1710 5.2518980389486165 2.4620364679199835 23.252828651845199 92 2 2 0.4423761880872778 2 2154 3 2154 13 1495 12 1495 8 1515 7 1515 4 2042
1711 -29.799199621973887 3.3634961024187597 47.252968174571002 195 181 164 0.47875137328369999 2 1639 3 1639 13 1499 12 1499 4 1496
1712 6.8511349948546751 4.8150453862772951 27.535768306892525 158 153 153 0.63465980231499786 6 2564 9 1922 10 2366 13 1504 12 1504 8 2098 7 2098 5 2164 4 1504 4 2058
1714 -4.8287208995840594 2.7497837650628276 17.711936587541071 67 66 71 0.51109557716591136 6 2570 42 1575 13 1508 12 1508 8 2105 7 2105 4 1510 11 1454
1717 4.7796909296172956 5.0800161415876177 20.089983424725936 174 169 166 0.44494936182957917 21 3223 13 1526 12 1526
1718 -15.538332158332592 4.7883746106815073 21.836511765439433 170 163 157 1.5947099917424812 2 1672 3 1672 9 2456 13 1529 12 1529 5 2668 4 2398 1 2007
1719 9.088327659540882 6.4157194922262599 18.026459356242125 30 26 25 0.46079300228194398 2 1660 3 1660 6 2587 13 1535 12 1535 8 1544 7 1544 5 1617 4 1521 11 1480 1 1452 49 1916
1720 9.1061198753584627 6.4234685111917429 18.055163198875654 30 26 25 0.54681292628862077 2 1661 3 1661 6 2588 13 1536 12 1536 5 1618 4 1522 11 1481 1 1451
1721 6.8223134803813155 5.6777231007047071 17.821059492241069 113 111 114 0.055482528330862139 26 2251 13 1539 12 1539
1722 1.2499905157019677 4.8511098035787388 18.178429501104123 55 51 50 0.34056966027201679 6 2596 13 1548 12 1548 8 1555 7 1555 5 1630 11 1490
1723 -14.160431883783364 4.8441395088451458 18.148767319254063 215 202 191 0.15029907164738293 2 1701 3 1701 13 1549 12 1549 4 1561 11 1497 1 1494
1724 6.8341598811102511 5.9847607826331277 17.257809168330233 76 71 75 0.35862365781970507 2 1671 3 1671 6 2594 13 1551 12 1551 8 1554 7 1554 5 1624 4 1528 11 1496 1 1466
1725 2.4438298559500953 4.9643769217023408 17.063088541138349 133 129 129 0.65420846052376724 6 2603 13 1556 2 1678 3 1678 12 1556 5 1638 4 1536 11 1501
1726 -9.0494513414425963 4.2760743318305998 17.011209789641345 91 82 81 0.28273965124473921 2 1702 3 1702 13 1563 12 1563 8 1575 7 1575 5 1659 4 1562 11 1505
1727 -8.8575448277837108 4.29760492962179 17.082192165800734 92 84 82 0.30074074793415884 2 1703 3 1703 13 1564 12 1564 8 1576 7 1576 4 1563 11 1506
1728 -6.3894214367945583 4.2178043347216905 16.952511801869502 40 32 29 0.37480989686516708 9 1952 13 1567 12 1567 5 1653 7 1570 8 1570 4 1557 11 1507
1732 -3.7313344115135418 4.2414322313570461 15.753265650420207 46 41 39 0.35278027035834303 2 1710 3 1710 13 1583 12 1583 11 1521
1733 -15.718896632670244 5.5138599302737648 16.293680441733137 153 151 154 0.94637352288929077 2 1740 3 1740 13 1587 12 1587 1 2049
1734 -14.922565886697951 5.3525615524223458 15.885530221093459 155 148 142 0.79544605714293271 6 3200 13 1595 12 1595 8 2154 7 2154 5 2218 11 1534 1 2055
1735 -11.121161681912024 4.7225611839891517 16.203452591890748 143 139 140 0.16131947393709203 10 2085 13 1596 12 1596 8 1616 7 1616 4 1606
1736 -5.6528270083632259 4.3541673905025053 15.720100011644213 55 51 48 0.79990642805747803 2 1726 3 1726 13 1598 12 1598 4 1593 11 1535 1 1516
1737 -6.1943082531343148 4.3132285582377898 15.521274360683746 155 150 147 0.55342754683873441 6 2651 13 1602 12 1602 8 1609 7 1609 5 1688 4 1596 11 1540
1738 -14.96742196921984 5.5272974407810542 16.03492708286468 224 214 203 0.86693153335031747 6 2671 9 1982 13 1606 12 1606 5 1709 11 1548
1739 -4.1283721923461476 4.3860237013575665 14.992840829933984 165 161 160 1.192815279579861 9 1984 10 2090 13 1625 12 1625 8 2156 2 2513 3 2513 7 2156 5 2213 4 2420 11 2039 1 2501 10 2582
1741 -0.35934077136237719 4.8815547639533534 14.372437227461148 56 52 51 0.36328281551356539 6 2681 13 1647 12 1647 8 1651 7 1651 5 1712 4 1619
1742 -1.645332960663739 4.8210653954942941 14.507345245784432 157 153 152 0.57593518167606605 9 2001 13 1656 12 1656
1743 -8.9419090390121596 4.8404304659062793 14.452435668979451 166 162 163 0.22151551131019592 2 2248 3 2248 13 1660 12 1660
1744 -7.2317453798651252 4.7765804868018042 14.648036136722736 163 157 157 0.18626386773310974 6 2737 13 1662 12 1662
1745 -5.6425791914634473 4.5039576658773148 13.744663753880179 122 117 114 0.65350972215258984 6 3222 13 1663 12 1663 1 2081
1747 -12.40109899845134 5.3818547116129087 13.848918553975475 162 155 151 0.70743360773713748 6 2752 10 2127 13 1667 9 2017 12 1667 8 1715 7 1715 5 1784 4 2144 11 2070 1 2101
1749 2.1760715306287013 5.6092420579277471 14.138603780966532 52 48 47 0.46164888716437713 2 1753 3 1753 6 2715 9 2010 13 1677 12 1677 8 1680 7 1680 5 1733 4 1636 11 2071
1751 -9.095357067620462 5.3729740523131397 15.414287604800236 166 162 163 0.36004752036533766 10 2133 13 1682 12 1682
1752 -9.095357067620462 5.3729740523131397 15.414287604800236 166 162 163 0.36004752036533766 10 2134 13 1683 12 1683
1753 -10.746896342533663 5.251540675149589 13.726921897489989 48 47 45 0.22615399947112769 6 2772 13 1685 12 1685 11 1614
1754 0.8313754793514202 5.1978496700551586 13.446867112927126 181 177 178 0.7724331274079228 6 2729 13 1687 2 1764 3 1764 12 1687 8 1690 7 1690 1 1562
1755 -9.4083771382999206 4.9860316203667168 13.464850622105915 135 133 134 0.24949050682694315 2 1834 3 1834 13 1688 12 1688
1761 -1.7803078782208808 4.9472555456104113 12.971303479141403 20 16 15 0.4703647466707831 2 1805 3 1805 10 2156 13 1720 6 2760 12 1720 5 1788 4 1686 11 1633 1 1609
1762 1.538152466080799 5.7203613065531655 12.820306955399365 58 53 57 0.33620037710498796 6 2763 13 1736 12 1736
1763 -6.2962189695562367 4.8693020721627986 12.620418104566294 170 166 167 0.77792749957134899 6 2804 13 1739 12 1739 4 1727 2 2281 3 2281 1 1665
1764 -9.7429863575818274 5.2696427920192441 12.307122938450378 239 238 237 0.65015365840299599 6 2825 13 1742 12 1742 8 1783 7 1783 5 1854 4 1748 11 1664 1 1703
1765 -3.927440221761167 5.0116347281488434 11.790043021523697 48 47 43 0.82082502252948542 6 2853 13 1789 12 1789 8 2230 7 2230 5 2294 4 2183
1766 -7.5359115961250502 5.2393862098600383 11.38898916740288 79 74 78 0.43889089824679495 10 2203 13 1807 9 2090 12 1807 5 1906 11 2132
1767 -26.738262240652549 -26.744478172771466 59.912356245377637 20 13 0 0.56150414663588466 2 1247 3 1247 13 1822 12 1822 8 1125 7 1125 5 1923 11 1737
1768 -29.495753964643161 -25.344356709078173 56.17431871954355 39 22 7 0.40219629325614592 2 1251 3 1251 9 1696 10 1796 13 1827 12 1827 8 1132 7 1132 5 1925 4 1824 11 1739
1769 -39.193865572261544 -24.901907198174424 51.727327512297521 60 56 53 0.26214731175543787 2 1941 3 1941 6 2899 9 1702 10 1805 13 1833 12 1833 8 1859 7 1859 5 1930 4 1829 11 1746
1770 -28.033688030396956 -25.889790776568134 62.647898368826553 32 33 14 0.25477950812194533 2 1951 3 1951 9 1708 10 1810 13 1840 12 1840 8 1867 7 1867 5 1936 11 1753 1 1758
1771 -30.183619227673741 -23.812670033986322 57.037532562569396 118 97 68 0.22771623340504232 2 1954 3 1954 6 2906 9 1711 13 1844 12 1844 8 1871 7 1871 5 1939 4 1834 1 1760
1772 21.225503093472955 -23.760287312917416 66.630004033588691 249 253 255 0.32202978033493262 6 2910 10 1817 38 3160 13 1845 42 1215 12 1845 8 1875 7 1875 5 2333 6 3297 10 2223 4 1841 11 1759 1 2168
1773 -30.008199089313297 -21.271114359596432 56.050773717817336 76 65 59 0.40344157872070607 2 1976 3 1976 6 2927 9 1732 10 1835 13 1862 12 1862 8 1893 7 1893 5 1960 4 1154 6 2237 11 1781 1 1780
1774 -34.561887966580123 -23.020826759822199 60.599871303039528 65 56 47 0.39705897071966223 6 2933 38 3182 45 2123 13 1864 49 1647 12 1864 8 1896 7 1896 5 1966 11 1115
1775 -24.204733436685061 -21.393265003909828 63.337187755879242 10 10 10 0.29228718165011602 2 1987 3 1987 9 1743 10 1846 13 1868 6 2939 12 1868 8 1905 7 1905 5 1975 4 1866 11 1795 1 1791
1776 -40.251206166429185 -20.568372001389022 54.80427439204626 122 108 94 0.16074111568405727 2 1991 3 1991 6 2942 9 1746 10 1851 13 1871 12 1871 8 1908 7 1908 5 1976 4 1867 11 1798 1 1793
1777 -32.083097241405149 -18.412350992970961 55.795008613091994 29 23 9 0.45781835677169053 2 2000 3 2000 6 2951 9 1752 10 1855 13 1877 12 1877 8 1918 7 1918 5 1984 4 1875 11 1803 1 1805
1778 -35.316671809434752 -17.923033645504777 55.920293737601646 30 32 17 0.1644225779884074 2 2003 3 2003 6 2955 9 1759 10 1864 13 1883 12 1883 8 1921 7 1921 5 1987 4 1879 11 1812 1 1809
1779 -27.460630706043371 -19.409900517495821 69.940506683881011 39 26 10 0.40004403928550425 2 2017 3 2017 6 2970 9 1775 13 1894 12 1894 8 1932 7 1932 5 1996 4 1890 1 1126
1780 8.8872689417313797 -18.743867959515462 81.243558216382951 68 133 223 0.27017984958406271 2 2029 3 2029 6 2990 9 1786 10 1883 49 1694 13 1905 12 1905 8 1947 7 1947 5 2012 4 1910 11 1834 1 1149
1781 -38.899688796549263 -15.367542027282347 54.277479010972272 120 111 94 0.80147870035038216 2 1393 3 1393 9 1790 10 1887 13 1913 6 2338 12 1913 5 2377 6 3348 4 1240 4 2272 11 1207 1 1157
1782 -30.741409592455593 -18.412371744829922 72.788409507542383 83 70 55 0.72050119864507178 42 1385 49 1714 13 1916 12 1916 8 1273 7 1273 5 1367 4 1242 11 1209 1 1165
1785 -40.7995933512167 -14.958752279114147 59.583938747966087 23 26 2 0.31655518666118571 2 1415 3 1415 10 1900 13 1928 12 1928 1 1187
1786 3.8123870822617811 -2.7582349738862053 21.862844109175917 76 84 87 0.19531636700553143 6 3027 13 1953 12 1953 8 1336 7 1336
1787 -35.835733822893204 -11.462069237206801 64.625077430738813 87 78 69 0.21954923040153379 2 2076 3 2076 13 1961 12 1961 8 1344 7 1344 4 1952 1 1250
1788 -36.203790658937514 -10.696448400078022 65.828049031975581 99 90 85 0.31336260560864654 2 2086 3 2086 6 3044 9 1838 10 1941 13 1969 12 1969 8 2008 7 2008 5 2072 4 1961 11 1886 1 1901
1789 -36.203790658937514 -10.696448400078022 65.828049031975581 99 90 85 0.31336260560864654 2 2085 3 2085 6 3045 9 1839 10 1942 13 1970 12 1970 8 2009 7 2009 5 2073 4 1960 11 1885 1 1902
1790 -49.41947855626249 -4.9599816917700821 58.513079257734965 94 90 81 0.21107251696582732 42 1497 13 1996 12 1996
1791 8.3473408121156272 5.0849358077198694 25.796142515134637 175 171 172 0.33735459909897886 6 3145 13 2042 12 2042 8 2100 7 2100 5 2166 11 1974
1792 9.0860425156865201 5.4353497477221788 26.328043805860887 172 168 169 0.39574991785245739 2 2166 3 2166 6 3146 9 1927 10 2036 13 2044 12 2044 8 2101 7 2101 5 2167 4 2060 11 1976 1 1437
1794 3.1678202389513608 4.5457784861935027 19.850437916922917 62 54 51 0.34874432085461599 9 1932 13 2050 12 2050
1795 5.8595826709335803 5.544414055451961 22.552960909124124 173 168 165 0.38797194418717529 6 3154 13 2052 12 2052 8 1538 7 1538 5 1610 4 1515 1 1998 2 2473 3 2473
1796 3.4142844924931226 5.0359259039473043 20.355398062027277 77 75 70 0.97385062289467572 6 3157 9 1935 13 2056 12 2056 8 2115 7 2115 5 1614 2 1659 3 1659 4 2072 1 1450
1797 -11.664060086892036 4.4855878145837487 18.494712773734403 155 146 139 0.36627804299948102 6 3169 9 1945 13 2061 12 2061 8 2124 7 2124 5 2182 11 2003
1798 5.7354310434443079 5.6457181754335348 17.958252558418536 176 174 177 0.38605281462186897 9 1940 10 2060 13 2062 12 2062 8 2119 7 2119 11 2002
1799 6.4141363158420024 5.7264869157639149 16.941109738364393 138 136 139 0.17800150292568262 21 3238 13 2063 12 2063
1800 -9.959387998769067 4.1906739909896453 16.837547756501866 90 81 79 0.73358130956704937 9 1949 13 2065 12 2065 5 1652 2 1699 3 1699 4 1558 11 2007
1802 -0.50964043118010638 4.6227139836171682 17.382464528962018 47 42 38 0.41574297782130248 9 1948 10 2065 13 2067 12 2067 8 1560 6 2606 7 1560 11 2010
1803 0.28833986339518136 4.8164643457197451 17.455590736657541 89 85 82 0.53514998745171982 6 2612 13 2071 12 2071 8 2127 7 2127 5 2181 4 2081 11 1508
1804 2.3846107837916151 5.0626115832982022 17.005826660165482 172 168 167 0.56115919225910016 6 2614 13 2072 2 1683 3 1683 12 2072 5 1645 4 1542 11 2012 1 1476
1805 -1.2187572159655169 4.5590798352868829 16.776922809833756 55 46 47 0.19112103208287207 6 2618 13 2074 12 2074 8 1571 7 1571 5 2189 4 2086
1806 7.0772750445757113 6.4255442194243768 15.904894375324787 153 152 150 1.1478337202106237 9 1963 10 2389 38 3393 13 2079 2 1687 3 1687 6 2617 12 2079 11 2022 1 1479
1807 2.8368124678767166 5.1802415150646528 15.788402493737923 179 175 176 0.074915742618423681 10 2079 13 2083 12 2083 11 1526
1808 3.0873893532910088 5.3746335550192788 16.537575647471943 179 175 176 0.68751058185850833 2 1692 3 1692 13 2084 12 2084 4 1554
1809 -5.4420395474399186 4.4208135047286001 15.667020410294995 154 150 147 0.67376157516388913 9 1975 13 2087 12 2087 8 2153 7 2153 5 2209 11 2034
1810 -0.8955204997446149 4.6596043788337624 15.310030204659958 134 130 129 0.23752663272180521 6 3191 13 2089 12 2089 8 2146 7 2146 5 2204
1811 -1.6338739173493371 4.7297455259988359 15.176350133097044 168 164 165 0.056427157543729935 10 2096 13 2098 12 2098
1812 2.9361128125994811 5.5446979549269937 15.310425211322803 185 183 184 0.56612399570252914 2 1717 3 1717 9 1985 10 2095 13 2099 12 2099 5 1687 11 2041 1 2028
1813 -12.004552578012712 5.070618099371706 15.188483487887506 148 138 137 0.36059838999762017 6 3214 13 2100 12 2100 8 2167 7 2167 5 2236 4 2123 11 2047
1814 3.2221233876854969 5.544835240675023 14.531048895051843 187 182 186 0.14346305670155859 9 1986 10 2100 13 2105 12 2105 11 2048
1815 -5.2538343705654089 4.6522087842518669 15.214742310779583 135 131 127 0.5387091199561429 6 2700 13 2107 12 2107 4 1637 11 1570
1816 -2.4844481662827453 5.0906353523483805 16.248392580002967 147 141 141 0.70335033897821131 10 2103 13 2108 9 1991 12 2108
1817 -5.5426828858219972 4.5750731260636286 14.509453854497451 162 156 156 0.51954646935490012 21 3267 13 2112 12 2112 8 1674 7 1674
1819 -8.326549377317404 4.6224964703705673 14.200593258901264 132 128 127 0.23781062598253869 9 2008 10 2121 13 2114 12 2114 11 1577
1820 -12.310571148559587 5.2481690119343591 14.057624947447596 200 189 181 0.85222052498503975 9 2013 10 2123 13 2116 12 2116 8 2179 2 2252 3 2252 7 2179 5 2251 4 2139 11 2067 1 2097
1821 0.74945248899532069 5.2359161183496354 14.813363167635869 165 161 160 0.39782195167738527 10 2112 13 2117 12 2117 8 1652 7 1652 5 1714 11 2062
1822 0.10004115634815454 5.1139990338624841 14.508735906191758 152 148 147 0.40032582784104331 10 2119 13 2120 12 2120 11 2066
1826 -12.090585309137133 5.4855814562801744 13.082959408505177 176 174 177 1.1736435522778981 2 2276 3 2276 6 3242 13 2131 12 2131
1827 -9.4666253604660522 5.0436531256563741 13.479057131815093 141 139 140 0.5153871024266593 6 2777 13 2132 12 2132 5 2263 4 2158 11 1623
1828 -10.605048307593638 5.2471163427407372 13.159921105611014 213 212 210 0.45480494362238882 2 2280 3 2280 6 3246 9 2040 10 2153 13 2134 12 2134 8 2204 7 2204 5 2271 4 2167 11 2083 1 2119
1829 -0.052438582936167689 5.3314006347289684 13.845749644775601 127 123 122 0.71613687867428688 6 2749 13 2135 12 2135 8 1717 7 1717 4 1665
1830 0.76414421247123365 5.3868816604642005 13.390592002289221 184 180 180 0.96590036839239601 2 1780 3 1780 9 2025 10 2142 13 2136 12 2136 8 1718 7 1718 5 1762 4 1659 11 2082
1831 0.32975400995725362 5.3317142607231522 13.471792179310908 94 90 89 0.73629530712951774 9 2023 10 2141 13 2137 12 2137
1832 -6.3991111381894497 4.9116706366813823 13.31332218654582 136 135 133 0.86544264637437918 6 3247 13 2142 12 2142 8 2206 7 2206 5 2268 4 2162 11 1636
1833 2.3783736722687929 5.7986144943540641 13.015036760765661 28 24 25 0.58378452940572756 2 2239 3 2239 6 3227 9 2027 10 2144 13 2145 21 3296 12 2145 8 2185 7 2185 5 2250 4 2130 11 2084 1 2075
1834 2.3786399339141213 5.7994678668283886 13.026588107597762 28 24 25 0.55952415126206867 2 2238 3 2238 6 3228 9 2028 10 2145 13 2146 21 3297 12 2146 5 2249 4 2131 11 2085 1 2074
1835 -4.9501348219005505 4.8040243491260144 12.756522437088998 155 154 150 0.82482163489881455 2 1841 3 1841 13 2152 12 2152 5 1821 4 2163 11 1644
1838 1.700495828167512 5.761944982925189 12.143211222677705 48 47 43 0.4558674198434069 2 1814 3 1814 6 2784 10 2171 13 2162 12 2162 8 1759 7 1759 5 1802 4 1690 11 1667 1 1612
1839 -2.5737284017730917 4.9059731063551935 11.970996195751589 28 24 21 0.45926359877443901 2 2274 3 2274 9 2054 10 2179 13 2165 12 2165 5 2278 6 2805 4 1715 11 2107
1840 -1.4766379323284422 5.1999902398386144 12.350872832972678 153 149 150 0.95541760243024731 9 2495 13 2166 6 3675 10 2605 12 2166 8 1772 7 1772 5 2541 4 2609 1 2362
1842 -4.2096716722341494 4.7324033145289688 11.59261528440363 44 39 36 0.68553797867280519 6 2829 13 2169 12 2169
1843 -2.9024777943176132 4.9146683677593677 11.168372537395753 34 33 29 0.91264863666357554 10 2195 13 2183 6 2860 2 1881 3 1881 12 2183 5 1867 11 1715 1 1690
1844 -22.032219937359187 -27.413260537138981 62.775749698861418 6 8 7 0.62751744198945503 26 2074 13 2191 12 2191
1845 -32.038577787143595 -24.732638611696576 61.308557660776827 27 21 0 0.65300540602841373 9 2109 38 3174 45 2111 13 2206 49 2022 12 2206
1846 -37.854604638759511 -17.882973634995977 58.397913747089568 23 26 5 0.13394855801623856 2 2357 3 2357 6 3333 9 2146 10 2263 13 2233 12 2233 1 2200
1847 -25.173604184963384 -16.764689841140445 72.031406139668022 76 60 49 0.99829552912608477 26 2161 13 2256 12 2256 11 1221 12 1920 13 1920
1848 -44.20374344400139 -15.179543395162215 55.853062045094894 15 4 0 0.51542308191119224 38 3233 49 2081 13 2258 12 2258
1849 -44.20374344400139 -15.179543395162215 55.853062045094894 15 4 0 0.51542308191119224 38 3234 49 2082 13 2259 12 2259
1850 44.50302387430829 -13.270229912944037 81.229455385837397 138 197 255 0.40424233228197315 2 2616 3 2616 6 3579 9 2178 10 2518 21 3367 13 2268 12 2268 8 2541 7 2541 5 2621 4 2516 1 2445
1852 -2.5872305606254309 -2.0478708048499312 19.336120353907216 0 1 0 0.066462459268602045 10 2316 13 2292 12 2292
1854 6.2942159523268444 -1.0849072920239549 21.203890255906167 116 7 10 0.61907505777060856 9 1854 10 1965 13 2303 12 2303 11 1903
1855 43.003715545477455 -0.3416227057338892 68.339968390058175 4 11 19 0.3439070980799252 2 2436 3 2436 6 3421 9 2230 10 2342 21 3196 13 2320 12 2320 8 2367 7 2367 5 2455 4 2350 11 2460 1 2279
1856 43.003715545477455 -0.3416227057338892 68.339968390058175 4 11 19 0.3439070980799252 2 2435 3 2435 6 3420 9 2229 10 2341 21 3197 13 2321 12 2321 8 2366 7 2366 5 2454 4 2349 11 2459 1 2280
1857 -51.762954989484619 -2.1613400919970251 59.759862351972664 143 136 108 0.13695940894582545 45 2241 13 2324 12 2324
1858 -29.797018286773543 1.6388121112357077 55.135480825875504 154 145 78 0.38609663281444062 2 2460 3 2460 13 2335 12 2335 11 1960 5 2145 7 2079 8 2079 10 2017 2 2150 3 2150 4 1480 6 2550 1 1976
1859 -10.866666302606546 1.684201910167644 20.941041413612155 91 26 22 1.1805065844184861 6 3449 9 2265 26 2227 13 2340 12 2340 8 2400 7 2400 5 2484 4 2559 11 1444 1 1987
1860 2.310979213106537 4.7521687767990448 22.244785727005628 36 32 29 0.042828618712571175 9 2272 13 2344 12 2344
1861 2.310979213106537 4.7521687767990448 22.244785727005628 36 32 29 0.042828618712571175 9 2273 13 2345 12 2345
1863 4.1478461876340225 5.0910629442520161 19.379782387493872 167 163 162 1.5339068834772807 21 3420 13 2347 12 2347 8 2405 9 1936 7 2405 4 2071 5 2173
1864 3.8496478709671638 5.2590575531223296 19.576317726492292 162 158 157 0.43881753754281916 2 2172 3 2172 9 2279 10 2375 13 2349 12 2349 8 2406 7 2406
1865 3.5365500338251152 5.390511102286534 19.586861398122828 166 162 161 0.36451552965551148 6 3459 9 2280 10 2376 13 2351 12 2351 8 2407 7 2407 5 2493 4 2566 11 2486
1866 6.5609234502608738 6.0292156957832246 16.726864034186232 153 148 152 0.49269846868614831 2 2178 3 2178 6 3166 9 2283 10 2379 13 2354 12 2354 5 2178 4 2076 1 2010
1867 4.2397793901015426 5.5652875923726128 17.21078506095478 173 171 172 0.45788516803159279 2 2181 3 2181 6 3170 10 2067 13 2357 12 2357 5 2497 4 2080 1 2014
1869 -1.1552406907964878 4.6217243244575688 16.221183688718526 82 78 77 0.39772945242926216 6 3469 13 2366 2 2496 3 2496 12 2366 8 2423 7 2423 5 2501 4 2406
1870 -7.4190823951629179 4.5299528194855982 16.789405443375244 139 136 133 0.54131709985365684 10 2081 13 2367 12 2367 11 1529 7 1598 8 1598 6 2647
1872 -3.1797811477767279 4.7110001409089879 14.849560129904585 91 89 90 0.72260696838966443 6 3482 13 2382 12 2382 26 2274
1873 -1.8514717460031496 4.763973829335427 14.746931332210696 60 56 53 0.4216946659473097 9 1996 13 2383 2 2214 3 2214 6 2686 10 2111 12 2383 8 2162 7 2162 5 2227 4 1626 11 2056 1 2048
1874 -10.755924315738316 5.0681836958568791 13.935598930473329 181 177 178 0.37245815355491879 2 2531 3 2531 6 3492 13 2388 12 2388 4 2146
1875 2.7707124888348633 5.6559900952854605 13.945789999182157 168 164 163 0.77668006391643951 2 2216 3 2216 6 3479 9 2312 13 2389 21 3453 12 2389 8 2171 7 2171 4 2422 1 1529
1876 -0.48906508588417036 5.0741226385304365 13.893355640898962 165 160 158 0.50167705785237537 21 3452 13 2391 12 2391 8 2177 7 2177
1879 0.67925705013919391 5.4680120177911569 13.334116635978397 59 55 54 0.81500934746087894 2 2243 3 2243 10 2154 13 2397 9 2031 6 3666 9 2317 12 2397 8 2190 7 2190 5 2253 4 2135 11 2088 1 2085
1881 -2.6464319353988479 4.8417640038295477 12.696138277940001 161 157 156 1.2306075677835748 2 2532 3 2532 9 2320 10 2429 21 3457 13 2399 12 2399 5 2706 4 2603 6 3787 5 2817
1882 1.6512261731331979 5.6911338998431731 12.625876460767849 176 174 175 0.46830694679979212 2 2527 3 2527 6 3494 10 2602 13 2401 12 2401 5 2530 1 2348
1883 -8.0638281676334636 5.1243257670517206 12.345001534038733 73 69 70 0.76783520707276409 21 3289 13 2404 12 2404 8 2465 2 2545 3 2545 7 2465 5 2715
1884 -1.204035856083995 5.2790268472644639 12.509569419201039 45 41 40 0.43359187489589723 6 3253 9 2053 10 2178 13 2407 2 1838 3 1838 12 2407 5 1829 4 1713 11 2108 1 1637
1885 -6.3763224333240798 5.1931622903256276 12.669703276810711 176 172 173 0.40637125860241047 6 3509 13 2408 12 2408 11 2112
1886 48.265024966437807 -27.823869844223672 78.669305799050093 251 254 255 0.98940220303336568 9 2112 10 1825 26 2086 13 2430 9 1723 12 2430 8 2258 7 2258 11 1097
1887 -33.721339846988982 -18.762947429731394 61.184864233531712 91 77 66 1.0514961848964912 51 2273 53 2316 13 2458 12 2458 1 2420
1888 45.670064658851636 -16.142973080078317 66.090710415680476 199 219 244 0.60909700585089954 2 2358 3 2358 6 3335 9 2381 10 2260 21 3108 13 2459 12 2459 8 2294 7 2294 5 2364 4 2260 11 1173 1 1827
1889 -37.050411138002566 -13.603528004602969 63.373665607453837 19 18 1 0.16280187991171283 2 2745 3 2745 6 3736 9 2548 10 2659 13 2487 12 2487 8 2683 7 2683 5 2762 4 2668 11 2585 1 2586
1891 39.787077361163959 1.5718223358340553 64.062678766459115 12 15 0 0.44322446665296417 2 2440 3 2440 6 3607 9 2432 10 2546 21 3394 13 2512 12 2512 8 2574 7 2574 5 2461 4 2358 11 2464 1 2288
1892 25.999361449873035 1.0570682367479034 60.549830484102266 87 105 131 0.036880269779324841 44 2271 13 2516 12 2516
1893 24.682707057668431 5.7791006863396222 53.229908143197655 73 74 8 0.32891827055495626 2 2648 3 2648 6 3618 9 2448 10 2558 13 2524 12 2524 8 2585 7 2585 5 2656 4 2553 11 2474 1 2475
1895 5.1292073867526273 3.7382245770455023 23.337866587472334 62 62 62 0.22682900995908312 9 2452 10 2563 13 2531 12 2531 11 2481
1896 0.016158530620289383 4.668462165551416 17.57940947713951 55 50 47 0.37180419279224308 9 2282 10 2378 21 3425 13 2537 12 2537 8 2410 7 2410 11 2488
1897 5.5212212007162327 5.7060946491854647 16.826386062781967 176 172 173 0.54508934268173848 2 2481 3 2481 6 3460 21 3428 13 2540 12 2540 8 2411 7 2411 5 2494 4 2399
1899 1.7202319035344107 4.9899414244446039 17.369405608408432 174 170 167 0.79564915197613617 2 2484 3 2484 9 2460 13 2542 12 2542 8 2413 6 3167 7 2413 5 2495 4 2401 1 2318
1900 7.0457865813612637 6.2323773768662374 16.172050548192647 62 61 59 0.34769220631275899 9 2461 10 2571 21 3430 13 2544 12 2544 11 2491
1903 3.7136306641530474 5.5533494880383376 16.268156411089571 179 174 178 0.52991611312114395 9 2296 10 2395 13 2550 2 2189 3 2189 12 2550 8 2424 6 3638 7 2424 4 2405
1904 5.3983413102630875 5.9887399882010985 15.231822727387359 168 166 169 0.55642222812007347 6 3470 9 2298 10 2399 13 2553 21 3441 12 2553
1906 -10.813590804939228 5.3867623944849106 14.923928064866169 171 167 168 0.30614772064066181 10 2596 13 2564 12 2564 11 2509
1908 -0.67267565054678913 5.0594680152921114 13.596593237894865 80 76 73 0.46934214730281071 9 2484 10 2598 13 2568 6 3661 12 2568 8 2451 7 2451 4 2592 11 2511
1909 -0.67119192377911496 5.0603507905255389 13.602087786338386 80 76 73 0.50084649985853757 9 2485 13 2569 6 3660 12 2569 8 2450 7 2450 4 2593 11 2512
1910 -4.1114143889556205 4.7592884960751878 12.980257745296342 150 148 144 0.45609075983896197 2 2688 3 2688 13 2570 12 2570 1 2354
1911 1.2201590323379572 5.6948104972865483 12.487408603845063 168 166 167 0.29188461836165364 6 3671 13 2576 12 2576
1913 1.4556916548669097 5.7216406056278215 11.924331038106221 165 163 164 0.3845063603727587 9 2494 13 2583 12 2583 1 2357
1914 0.73786807401849053 5.4761096118989991 11.532340840249748 189 187 188 1.9453217276552659 9 2496 10 2606 13 2586 6 3788 2 2808 3 2808 12 2586 5 2708 7 2746 8 2746 4 2607 9 2704 11 2521 1 2519
1915 -7.9202941866230621 5.2109076568553112 11.103081558891597 163 161 164 1.1302528575776107 9 2343 10 2613 13 2590 12 2590 11 2532
1916 -7.9202941866230567 5.210907656855305 11.103081558891585 163 161 164 1.1302528575775941 10 2612 13 2591 9 2344 12 2591 11 2533
1917 -26.123472334880297 -22.393216499130972 64.331293642333279 4 5 0 0.17979768776339922 2 2720 3 2720 6 3702 9 2518 10 2631 13 2608 12 2608 8 2654 7 2654 4 2636 11 2555 1 2558
1918 34.617776181745768 -15.687827394945907 75.500611345859355 177 206 253 0.63052166302325618 51 2276 13 2628 12 2628 4 2658 11 2574 1 2577
1919 -36.122980726913575 -14.312662679756018 62.028496410135908 124 112 95 0.21749235440716827 2 2742 3 2742 6 3731 9 2542 10 2656 13 2637 12 2637 8 2677 7 2677 5 2755 4 2664 11 2581 1 2584
1920 -36.122980726913575 -14.312662679756018 62.028496410135908 124 112 95 0.21749235440716827 2 2743 3 2743 6 3732 9 2543 10 2657 13 2638 12 2638 8 2678 7 2678 5 2756 4 2665 11 2582 1 2585
1925 7.2402858096809233 5.8800135173281554 18.56557995985818 115 113 116 0.31116902909135924 6 3629 10 2697 13 2685 12 2685 11 2633
1926 4.1474636706106747 5.3269444831688508 17.968295256105137 165 161 162 0.29764435077153212 6 3632 9 2590 10 2701 13 2687 2 2662 3 2662 12 2687 8 2726 7 2726 1 2316
1927 2.3885583523432055 5.1224129628028603 17.830768326994068 177 173 172 0.46174533847148719 2 2798 3 2798 6 3634 9 2459 10 2703 13 2689 12 2689 8 2595 7 2595 5 2673 4 2715 11 2635
1928 -4.4166615966226548 4.4985153025436251 16.282122597265332 74 70 69 1.183328322051995 10 2802 13 2695 12 2695 5 2808 2 2802 3 2802 4 2718 1 2498
1929 -14.503013609341059 5.5041109691986643 14.767447686467529 226 217 200 1.259867953426441 2 2911 3 2911 6 3871 9 2597 10 2707 13 2696 12 2696 8 2733 7 2733 5 2909 11 2641
1930 3.3402073704274549 5.7143564394517545 14.482036036432095 182 178 179 0.54750229179071885 2 2670 3 2670 9 2598 10 2709 13 2699 12 2699 8 2732 7 2732 11 2645 1 2500
1932 -0.61491337304646276 4.9140327821034493 14.071930316912084 154 150 149 0.37086082731385717 9 2478 10 2711 13 2701 12 2701 8 2613 7 2613 4 2585 11 2647 1 2505
1934 1.4121658561430348 5.5793151832615431 13.38663871962209 163 159 160 0.96969663075521306 2 2678 3 2678 6 3662 13 2708 12 2708 8 2737 7 2737 5 2697 4 2594 11 2515 10 2424
1935 -0.048750643776251899 5.4055689639049618 13.230438828807268 183 179 180 0.87935247053553378 9 2609 10 2716 13 2711 12 2711 8 2739 7 2739 5 2702 4 2600 11 2657 1 2515
1936 -4.6287483118985415 4.7762576139029127 12.431707992249542 178 174 171 0.46566042162463345 9 2491 10 2603 13 2713 12 2713 8 2742 7 2742 11 2660
1937 -2.6012421750380015 4.9381957026055021 12.273501873969279 47 43 40 0.73871264679172655 2 2810 3 2810 9 2613 10 2719 13 2714 6 3674 12 2714 8 2625 7 2625 4 2729 11 2661 1 2640
1938 -5.1144924699550911 4.948258211542119 11.103832192308216 163 159 160 1.6524329229700478 9 2620 13 2718 12 2718 8 2638 2 2821 3 2821 7 2638 4 2735
1939 37.824301952028129 -15.880010877847809 77.648513340755784 254 252 253 0.41315982502682191 2 2866 3 2866 6 3839 9 2660 10 2766 16 2556 13 2761 12 2761 8 2795 7 2795 5 2866 4 2778 11 2704
1940 0.8638870794009782 5.1415050675762881 15.200088180801016 150 148 149 0.42843930956697429 9 2691 13 2799 12 2799 20 2722
1941 -0.49673788783510864 5.1983992962703791 13.198184351426184 172 166 166 0.15694503771042059 10 2814 13 2808 12 2808
1942 -3.5322081299029522 4.842998198850661 12.809980515482938 158 154 153 0.49008228190961661 6 3926 9 2703 13 2809 12 2809 8 2900 7 2900 11 2809
1943 -4.9754744121267596 4.7130348302446246 11.745320710966027 162 158 157 1.4785563718101549 6 3789 9 2705 10 2720 13 2811 2 2814 3 2814 12 2811 5 2820 4 2730 11 2753 1 2526
1944 -9.7906431660430844 5.7221922046306455 12.598837118185918 146 144 145 0.63895170021894498 16 2612 13 2813 12 2813 11 2754
1945 -7.1471226134497687 5.2304510595001403 11.735153167860727 166 164 165 0.82897308333627229 6 3797 9 2619 13 2817 2 2825 3 2825 10 2722 12 2817 8 2758 7 2758 5 2828 4 2737 11 2665 1 2648
1946 -25.172408346277255 -25.812578901997444 62.319610744599757 146 159 198 0.40147058093325116 2 2932 3 2932 6 3800 9 2626 10 2615 13 2821 12 2821 8 2760 7 2760 5 2922
1947 -25.227969602898021 -25.852589275941888 62.520846134157942 146 159 198 0.32790770879885056 2 2933 3 2933 13 2822 12 2822 5 2923
1948 -31.437163517129861 -18.254525535515707 64.71162375600737 127 117 108 0.17961375901178528 2 2934 3 2934 6 3883 9 2711 10 2827 13 2825 12 2825 8 2850 7 2850 5 2925 4 2830 11 2763 1 2732
1949 5.2965564552679316 5.4142104354322464 21.090601899080962 158 153 150 0.54117576458123895 9 2743 10 2861 13 2855 12 2855 8 2887 7 2887 11 2796 20 2716
1950 -5.4226934974496173 4.3413357849412719 16.658544999484864 65 57 54 0.24599234154884447 9 2747 10 2909 13 2858 12 2858 11 2798
1953 0.12999610476990262 5.2480672066777618 13.646976925825815 52 48 47 0.70430694652265835 2 2912 3 2912 6 3872 9 2757 10 2872 13 2866 12 2866 8 2898 7 2898 5 2911 4 2820 11 2807
1954 -0.9239885834575704 5.1560120451167801 12.974851916070497 161 157 156 0.4977088419963292 2 2917 3 2917 6 3878 9 2701 10 2874 13 2867 12 2867 8 2844 7 2844 5 2915 4 2824 11 2810
1955 -1.299703649130735 5.1352674431593721 12.429627569131613 92 88 87 0.71665156378476791 2 2971 3 2971 6 3928 9 2759 10 2876 13 2868 12 2868 8 2902 7 2902 5 2971 4 2874 11 2812
1956 -1.3011414287776213 5.1322221327255155 12.416279659346232 92 88 87 0.65195438237739789 6 3929 9 2760 10 2877 13 2869 12 2869 8 2903 7 2903 5 2972 20 2727
1957 0.20434266542326504 5.3421981507693541 12.256491429546182 183 179 180 0.42021656284501763 2 2919 3 2919 6 3927 10 2875 13 2870 12 2870 8 2901 7 2901 5 2970 4 2873 11 2811
1958 -3.2955000897145488 4.9945172896151018 11.6889560195699 167 163 160 0.37043121260418294 9 2761 10 2879 16 2615 13 2872 12 2872 8 2905 7 2905 11 2814
1959 -30.125972831309021 -17.744931420678739 67.691254610665013 20 16 9 0.092108365774497686 2 2985 3 2985 6 3937 9 2771 10 2890 13 2885 12 2885 8 2915 7 2915 5 2981 4 2886 11 2826 1 2785
1960 -10.824230845878994 0.99807238898949568 15.07739221079229 114 105 34 0.010876083940862459 2 2788 3 2788 13 2903 12 2903
1961 8.315407840500912 5.8903669966206431 20.820298889724082 174 170 171 0.46064279676087028 2 2957 3 2957 6 3916 9 2742 10 2860 13 2911 12 2911 8 2825 7 2825 5 2957 4 2860 11 2795 1 2757
1962 0.12308383353824122 4.7257342493254084 15.492396206114138 162 160 161 0.52739667017147307 2 3000 3 3000 6 3959 9 2796 10 2910 13 2913 12 2913 8 2935 7 2935 5 2999 4 2903 11 2853 1 2804
1963 2.3706075136802434 5.5876459465440371 14.47128537283408 132 127 123 0.70819168313391678 2 2967 3 2967 6 3922 9 2754 10 2867 13 2915 12 2915 8 2894 7 2894 5 2965 4 2869 11 2803 1 2766
1965 -9.1816383904692209 -11.529439131459322 46.252904974277278 59 57 58 0.77647806633873195 6 3971 13 2928 2 3014 3 3014 12 2928 8 2951 7 2951 5 3017 4 2925 11 2872 1 2813
1966 -28.370765292397895 -19.069669188135862 71.804455461949686 73 59 48 1.0339820517169536 10 2930 51 2535 13 2929 12 2929
1967 -11.468493546993402 -2.7598103351126437 19.256131235275543 135 0 0 0.32710905530069589 48 2614 13 2934 12 2934 11 2877
1968 6.3277022366180153 -1.9798864599146744 22.266789366373825 117 0 2 0.45364790625918888 6 3941 9 2775 10 2933 13 2935 10 2897 12 2935 8 2919 7 2919 5 2984 4 2891 11 2835 11 2878
1969 0.10146039905620016 4.6968015080624363 15.358388586770941 162 160 161 0.31809300712483501 6 3990 13 2949 12 2949 5 3035
1970 -32.81653900048105 -23.891850179866125 58.907432696419484 109 99 90 1.0404230630827012 3 3036 6 3994 9 2826 10 2951 13 2953 12 2953 8 2974 7 2974 5 3042 4 2947 11 2894 1 2834
1971 -32.565058370667785 -23.641841097136705 58.392727858278157 109 99 90 0.87614482838179741 3 3037 6 3995 13 2954 12 2954 8 2975 7 2975 5 3043 4 2948 1 2835
1972 -11.636320856099303 1.1077595485799223 20.51416761940273 92 13 9 1.2860434708435886 58 2513 13 2956 12 2956 8 2984 7 2984 4 2958
1973 -3.3271840901479273 4.8034398210346563 11.911688708011351 146 142 141 0.48384141175333123 3 3048 6 4008 9 2835 10 2958 13 2958 12 2958 8 2987 7 2987 5 3056 4 2960 11 2901 1 2849
1974 -3.3247212885491835 4.7844363839438717 11.891889984563299 146 142 141 0.085237756155351646 10 2959 13 2959 12 2959 11 2902 1 2850
1975 11.786127165955158 -14.372737777882422 66.139852506110884 252 253 252 1.6782691964580085 3 3043 6 4010 9 2838 10 2961 13 2961 12 2961 8 2989 7 2989 5 3058 4 2961 11 2905 1 2853
1977 -32.765505932459519 -18.225073642289974 61.749155502442179 126 114 99 0.79849942417388386 2 3055 3 3058 6 4019 9 2846 10 2969 13 2967 12 2967 8 2998 7 2998 5 3067 4 2972 11 2912 1 2860
1978 -32.765505932459519 -18.225073642289974 61.749155502442179 126 114 99 0.79849942417388386 2 3056 3 3059 6 4020 9 2847 10 2970 13 2968 12 2968 8 2999 7 2999 5 3068 4 2973 11 2913 1 2861
1979 2.4688156751071424 5.4235776797174111 17.650490322264002 175 173 174 0.83309284556766872 6 4016 9 2844 10 2966 13 2973 12 2973 8 2995 8 3003 7 2995 7 3003 5 3063 4 2966 11 2916 1 2856
1980 -16.876452117212594 -16.501757453654413 60.206061828137052 246 242 247 1.2519829561206444 2 3064 3 3067 6 4028 9 2855 10 2975 13 2976 12 2976 8 3006 7 3006 5 3076 4 2982 11 2918
1981 -17.02980738713757 -16.708723338146203 60.890918379262011 246 242 247 1.2976699973483756 2 3063 3 3066 6 4027 9 2856 10 2976 13 2977 12 2977 8 3005 7 3005 5 3075 4 2981 11 2919 1 2870
1982 -37.130971530035175 -13.898870406332421 56.224737454006849 8 10 0 0.40399381152476332 2 3065 3 3068 6 4026 9 2857 10 2977 13 2979 12 2979 8 3007 7 3007 5 3077 4 2983 11 2921 1 2869
1983 -26.43887861777408 -23.347952049864364 66.004291734216849 7 10 0 1.2261326979699774 2 3071 3 3074 6 4032 9 2861 13 2984 12 2984 8 3012 7 3012 5 3081 4 2988 1 2874 20 2880
1984 -29.490708916593302 -27.429762382792504 65.109831897526163 11 10 0 1.1931348551801548 2 1944 3 1944 49 1605 13 1838 2 2316 3 2316 9 2099 10 2216 26 2083 49 2009 6 2200 2 1266 3 1266 9 1705 12 1838 8 2246 7 2246 5 1238 4 1116 1 1035 1 2159
