# 3D point list with one line of data per point:
#   POINT3D_ID, X, Y, Z, R, G, B, ERROR, TRACK[] as (IMAGE_ID, POINT2D_IDX)
# Number of points: 183, mean track length: 19.161143050388908
7609 -2.820263511005769 -4.1998891365476547 101.74377553145236 77 72 37 1.1374123303991877 214 1946 227 1546 228 1546 231 1292 238 1291 216 771 237 1291
7610 -16.206511221144883 -22.49294074637146 39.124486511084029 102 101 99 0.55406130601799031 201 2075 217 1429 218 1429 238 1440 215 1403 196 2727 237 1440
7611 -16.395528273150578 -8.5319488907331031 32.431335349905588 76 75 76 0.49925153400550271 191 2913 196 2504 238 1561 237 1561 239 1539
7612 -0.6449058546162052 -12.040897283918861 64.506008446373414 36 40 32 0.53294332464260952 232 1939 233 1939 234 1977 244 1466 238 1582 227 2119 228 2119 229 2114 230 2001 231 1857 235 1860 237 1582 239 1788 240 1755 236 1447
7613 -14.542060954175479 -3.6309220590211431 36.583420930522827 75 78 23 0.38002793346160596 242 1138 243 1138 244 1509 238 1636 237 1636 239 1603 240 1565
7614 -8.4099244242159124 7.0900575024286052 60.967361984284643 0 0 0 0.074560869093380833 226 1271 242 1502 243 1502
7615 -5.6156564096734511 -28.059318828133311 58.472111186739845 6 15 10 0.51352905753576028 209 2700 234 1898 235 1776 238 1739 237 1739 245 1528
7616 -6.5350086419845859 -10.724394088211895 47.928919542628911 17 20 14 0.45974059571520048 205 2676 238 1805 237 1805
7617 -12.230883444359415 -4.9300245942038972 35.997177614093985 66 62 37 0.24724291891304392 214 2631 215 2558 219 2201 238 1847 237 1847
7618 14.11589719386218 -76.162830006241805 134.71084028927413 179 213 247 0.60814461893691396 195 3512 197 3384 198 3384 199 3306 201 2930 238 2021 237 2021 241 1682
7619 -16.892648432043575 -3.0991954568923048 33.587829624999543 98 96 39 0.79246043347867856 220 2796 226 2183 231 2225 235 2207 238 2174 239 2146 237 2174 240 2118 236 2020
7621 -15.721419926057324 -8.7590400856096959 33.538121799704072 111 103 93 0.62492586156103047 195 902 189 1032 187 943 188 943 190 922 186 1048 238 421 194 2828 195 2765 205 2358 204 1970 202 2555 203 2555 197 2627 198 2627 200 2481 191 3274 207 2468 208 2468 209 2446 210 2311 210 2648 212 2271 213 2271 214 2276 215 2181 217 2204 218 2204 211 2324 242 1629 243 1629 219 1608 220 2035 223 2050 223 2331 222 2050 222 2331 225 2235 224 2340 227 1832 228 1832 229 1360 230 1716 232 1924 233 1924 226 1072 235 1566 234 1702 237 421 239 1130 206 619 240 1104 236 1423
7622 -13.765137718213714 -8.444234261482789 35.426953531055567 73 73 71 0.50458317884824144 200 2495 215 1685 225 1481 212 721 213 721 210 742 224 1563 227 531 228 531 229 531 235 1183 238 434 211 1520 232 465 233 465 237 434 239 411 236 345 241 325
7623 -9.0172184493727752 -11.76274529483373 43.510470694885036 27 25 30 0.56269597236558733 209 2435 217 2186 218 2186 229 1336 230 1254 238 1551 201 2214 211 1988 231 1835 237 1551 236 1409
7624 -16.756274144719146 -20.081051029654095 37.132162745287616 87 84 82 0.79233713090238733 242 114 243 114 244 119 195 435 199 380 186 513 238 139 204 357 209 333 210 304 211 252 237 139 239 123 240 93
7625 -7.8881676468454183 -26.155415453026723 51.155511463450814 135 144 152 0.56164975617446633 217 230 218 230 225 172 232 151 220 207 233 151 235 138 234 151 238 131 201 271 215 1410 216 1179 192 1913 193 1913 194 389 195 374 205 297 204 305 242 110 243 110 202 1707 203 1707 199 340 187 1966 188 1966 191 1924 186 2010 185 1771 196 281 207 1635 208 1635 209 298 210 274 212 1469 213 1469 214 275 206 234 223 177 222 177 224 187 227 173 228 173 221 107 231 136 226 131 237 131 239 113 241 754
7626 -9.3730168572477357 -12.282972613796602 43.513039985014686 49 48 53 0.68922031541412754 202 2880 203 2880 189 3368 216 1932 238 1540 204 2551 212 2244 213 2244 214 2260 215 2164 192 3166 193 3166 244 1668 194 3166 195 3081 197 2958 198 2958 199 2912 200 2813 189 3367 190 3053 191 3260 185 2976 209 2763 210 2630 219 2417 220 2345 223 2322 222 2322 225 2225 224 2330 227 2090 228 2090 229 2094 230 1978 232 1912 233 1912 231 1554 235 1546 237 1540 239 1770 240 1741 236 1402 245 1582
7627 -14.316161462858128 -4.2522483974062313 34.397594097429135 70 66 27 0.64111532563912299 220 2115 232 1340 233 1340 235 1261 234 1345 238 1229 192 3234 193 3234 202 2641 203 2641 197 2714 198 2714 199 2664 200 2885 189 3444 187 3403 188 3403 190 3113 185 2695 196 2837 207 2549 244 1497 208 2549 201 2757 206 2288 220 2408 210 2693 217 2752 206 2544 218 2752 211 2527 242 1670 243 1670 223 2635 222 2635 225 2435 227 2303 228 2303 229 2295 221 2202 232 2194 233 2194 231 2113 226 2057 235 2107 234 2243 237 1229 239 1226 240 1206 236 1488 236 1914 241 1512 245 1408
7628 -16.659062179411311 -7.6493647007946244 32.072400944869244 89 88 70 0.29426319856485589 191 3285 186 3323 185 2994 210 2658 201 2525 223 2339 222 2339 238 1814 192 3186 193 3186 195 3105 205 2679 204 2938 202 2905 203 2905 197 2983 198 2983 200 2840 187 3358 189 3390 188 3358 190 3071 209 2785 214 2592 215 2520 217 2530 218 2530 211 2007 219 2440 220 2364 216 2284 221 1970 231 1852 226 1773 234 1969 237 1814
7637 -10.821100972796421 -7.0228389041685695 38.459727812720281 69 69 61 0.252095959982236 222 679 223 679 238 1176 237 1176 239 1175
7639 -14.287803274978472 -39.876832868917596 55.443390217476548 12 20 22 1.8110128038591049 186 1765 238 1700 185 1527 190 1567 237 1700 239 1667 236 1560
7640 4.8953103010632111 -0.49931887280326637 7.1950695427608835 0 0 0 0.49816963280931831 242 497 243 497 244 520
7641 -3.6191697690612501 -5.8889201713036581 58.274370690615861 35 41 27 0.73706656142068672 227 712 228 712 229 686 230 682 235 621 238 578 237 578 239 553 234 659 232 646 233 646 240 532 242 494 243 494 244 540 241 432 245 510
7643 -19.770824149418456 -27.701175398030049 38.077816766090493 45 43 44 0.48049912542979417 217 81 218 81 220 76 239 21
7644 -11.850483147396634 -35.074889925882552 53.615666428337313 165 176 178 0.46174495783583025 227 57 228 57 231 909 239 35 226 852
7645 -11.318255495070742 -33.410383063982437 52.378893794283677 26 32 32 0.46799310032798785 200 161 242 31 243 31 239 41 190 1682 195 161 197 1593 198 1593
7646 -18.152968889085773 -20.58259834643605 34.893656233601526 92 79 72 0.38496291685883521 222 151 223 151 224 173 239 83
7647 -5.6539619690721805 -26.68915988169141 55.950971977842173 39 51 52 0.95763756261927413 224 1336 239 129 222 1300 223 1300 225 1251
7648 20.674473354725386 -55.240329159880048 138.33595353088657 149 174 208 0.88389505816511293 202 409 203 409 211 293 227 240 228 240 229 246 230 227 239 171 216 215 217 311 218 311 220 285 222 1333 223 1333 232 218 233 218 209 1698 221 166 211 1335 245 138
7649 -14.216603942113275 -17.023666804343794 38.89679489318722 34 33 41 0.53752973185189834 217 373 218 373 222 306 223 306 239 192
7650 -18.397258654245217 -15.136009712958428 33.65501127972653 84 85 69 0.14062641621974897 231 251 237 230 238 230 239 200
7651 -13.415408728587174 -16.95975809657935 39.6873320684467 40 39 44 0.2069758633179129 210 438 237 234 238 234 239 204
7652 -15.547630749517417 -15.49544428214416 35.955600673195491 47 46 52 0.17729807563545932 204 544 239 209 202 530 203 530 205 510
7654 -11.490770609613694 -7.3289223238438383 37.456857205832627 62 63 49 0.17334230248009919 217 745 218 745 239 450 240 435
7656 -12.157651902613809 -2.5429004842806706 34.691583149605073 65 69 32 0.37108915916251944 237 616 238 616 244 583 239 604 240 572 245 1112
7657 -6.024107462278014 -1.3942270536838399 22.932186912577585 128 129 123 1.6054560074826665 242 550 243 550 239 611 240 580 241 484
7658 -13.288178691874075 -2.1956707493178698 37.68654177547527 194 193 195 0.36242133900403412 230 755 239 626 235 678 240 589 236 541 241 485 244 599 245 571
7659 -2.6275105399513188 -1.7789925830742501 122.22909021454528 83 90 36 0.5122781227509362 216 801 217 1038 218 1038 219 1014 220 1737 221 653 222 1733 223 1733 224 923 225 839 226 574 229 796 231 687 232 737 233 737 239 664 230 802
7660 -10.237139881447122 -15.230191491777951 43.820769411021885 70 69 74 0.26815755579940748 187 2180 188 2180 239 1068 186 2234 185 713
7662 -6.9289801348337674 -5.0533159263411749 55.615424162198551 18 20 15 0.3820071740749601 229 1489 239 1241 245 1094 234 1775
7664 0.56160823017660311 0.78773943513030087 9.400680761138025 0 0 0 0.67674664533873585 227 1589 228 1589 229 1572
7665 -7.9173332237915712 -28.377003119199045 53.179861933337655 122 136 149 1.1669941749648245 217 1420 218 1420 239 1436
7666 -11.754777865334161 -8.4484897959234484 37.03781580261483 80 84 62 0.28204487336725936 196 2799 239 1546 241 1490 227 1851 228 1851 229 1378
7667 -11.953004608031472 -8.5419408886681776 37.575929987082333 80 84 62 0.3267391928951609 197 2639 198 2639 227 1850 228 1850 239 1547 226 1089 229 1377
7668 5.0797698489840268 -22.215633436416645 177.92281059443121 27 29 16 1.369227135006474 202 2644 203 2644 216 2019 221 1287 224 2110 225 2014 229 1456 235 1620 239 1585 217 2566 218 2566 219 2203 220 1639 206 2286 207 2544 208 2544 209 2537 210 2387 211 2087 214 2360 215 2258 196 2048 197 2191 198 2191 199 2120 200 2018 204 2120 209 2035 212 1861 213 1861 222 1628 223 1628 220 1644 234 1331 236 1478
7670 -13.676248286271736 -8.3997116213903009 35.173860595017238 70 70 70 0.60418359440472724 186 1091 207 815 208 815 209 813 210 743 227 530 228 530 239 412 244 1063 201 1648 206 645 242 376 243 376 205 807 211 1521 220 1544 216 1420 224 1564 229 530 221 410 226 1083 235 1184 236 344 245 1013
7671 -18.503638129380544 -25.595413083402786 38.374404332453182 115 106 98 1.6656390961926129 197 195 198 195 199 207 202 176 203 176 186 265 185 225 215 1340 239 46 244 36 202 203 203 203 187 249 188 249 185 246 187 265 188 265 207 189 208 189 209 192 214 165 215 143 217 131 218 131 219 128 227 93 228 93 232 61 233 61 235 56
7672 -20.183306909131886 -23.385137928880372 34.976829411982472 26 21 18 1.8242722075778086 212 192 213 192 219 1353 239 53 202 209 203 209 204 1648 205 1499 197 1653 198 1653 199 1624 200 1573 215 146 217 145 218 145 219 1342 220 134 234 1025
7673 -16.943402953996831 -10.606238282615626 32.250743605585917 45 44 43 0.66998490711324099 192 2154 193 2154 194 828 204 729 191 833 185 809 212 590 213 590 239 310 206 523 235 339
7674 -15.258609947982549 -14.709881931907834 35.636901565785585 28 28 32 1.2435732229701606 204 576 187 684 205 544 188 684 190 671 242 206 243 206 205 537 207 1787 208 1787 235 251 206 1534 238 1044 237 1044 239 225 185 631 219 393 223 335 222 335 230 288 236 194 245 185
7675 -14.810730879294013 -8.5512446643324989 34.248861669323048 91 85 62 0.79565868198948109 194 990 204 1979 195 924 202 867 203 867 197 2037 198 2037 224 565 222 597 223 597 239 401 210 1785 225 523 238 428 237 428
7676 -12.276907712654749 -4.1648019797476019 35.799084206409077 123 126 107 1.0644249926686928 186 2508 229 1901 230 1797 239 1595 192 1173 193 1173 207 1030 208 1030 219 1733 217 1813 218 1813 240 1210 216 659 241 974
7677 -9.6831924038613337 -29.437243589010535 51.199080868215333 29 41 44 0.97212140763553589 211 2233 229 2022 201 2430 206 2642 221 2102 239 1688 192 1825 193 1825 194 2631 195 2578 205 1511 204 1663 202 1648 203 1648 197 1662 197 2460 198 1662 198 2460 199 2408 200 2289 189 300 187 275 188 275 190 284 191 2725 186 1935 185 1704 207 220 208 220 209 226 214 1462 215 1370 217 2052 218 2052 219 168 220 1884 216 1805 223 112 222 112 229 1673 234 93 240 1382 240 1662 241 1144 245 53 242 56 243 56
7678 -16.072065139256448 -10.621182312252561 33.657701363076299 62 59 36 0.77671730767405345 197 745 198 745 212 609 213 609 214 627 238 347 237 347 239 1087 192 2796 193 2796 204 757 202 1957 195 2047 203 1957 199 1934 189 2298 187 2249 188 2249 191 2217 186 940 201 2199 212 2242 213 2242 214 2254 206 1610 215 1619 220 2010 216 1364 227 1317 228 1317 229 1802 230 1239 221 1148 231 1831 226 1476 241 1239
7679 -17.210640709697397 -16.988515425082458 35.175107118533212 54 52 58 1.2350769998118818 186 627 189 2143 190 560 207 444 208 444 209 1717 230 231 239 1018 222 272 223 272 229 259 219 329 238 200 237 200
7680 -16.021322429341257 -7.5258684159244815 32.606711374597189 44 45 43 0.71294961178252259 200 866 186 1112 232 490 195 960 233 490 234 505 239 1152 195 968 205 835 192 2246 193 2246 194 2237 204 2005 199 2003 200 877 189 2379 187 2350 188 2350 190 972 191 2314 196 1949 207 1956 202 2020 203 2020 208 1956 209 837 210 775 201 1660 212 1761 213 1761 214 1769 206 1697 215 2201 217 1709 218 1709 211 1534 219 1638 220 1553 216 520 201 1661 223 1549 222 1549 224 600 227 1388 228 1388 229 553 230 514 221 1218 232 500 233 500 231 477 226 1094 235 465 238 1155 237 1155 240 1126 236 1039
7682 -13.838626819377554 -36.545826849659832 51.279303273968225 34 41 33 0.32103163776405047 229 23 237 18 238 18 240 6 227 21 228 21
7683 -18.737037413550876 -31.359170227952461 42.448983089354179 28 27 34 0.33770140251831893 185 101 225 40 240 8
7684 -18.897317777962932 -25.383674710421523 38.662698092021067 78 77 73 0.41937076501501347 231 70 235 64 237 63 238 63 240 42
7685 -17.2172863808117 -20.347135762664657 35.910981979962905 122 105 89 0.62571360383928754 220 204 240 83 225 168
7686 4.1345303806479281 -1.011417666845309 5.686978482322754 0 0 0 0.026589086409181239 239 156 242 118 243 118
7687 -11.677610450466585 -16.467035213837029 42.575914712411141 55 56 58 0.39616702651337443 222 354 223 354 240 214 224 367 245 198 212 477 213 477 214 481
7688 -10.103623957539423 -11.53881465901736 41.970443026968475 21 21 21 0.11436584816718318 192 872 193 872 194 905 240 334
7689 -10.802420294330386 -6.2941093263721903 37.627393147604003 81 83 72 0.041391338407262251 222 702 223 702 240 463
7690 -10.802420294330386 -6.2941093263721903 37.627393147604003 81 83 72 0.041391338407262251 222 701 223 701 240 464
7691 -2.4843245000464345 -8.5225525687067236 59.323315046598871 22 24 21 1.0856585183060292 219 797 239 492 242 439 243 439 244 473 240 474 217 825 218 825 241 388 245 458
7692 -10.425028327983679 -4.4067725039021024 36.975099774817551 158 158 150 0.046170541153562179 222 782 223 782 240 521
7693 -11.94940356507669 -4.5856502212404484 39.422189599283115 159 158 156 0.85405537064965797 225 709 244 538 240 527 245 1079
7694 -16.506944562862159 -2.0212653235291618 36.421325441288914 81 86 45 0.55879972461912852 214 1025 239 633 240 599 236 558
7695 -18.722746175892585 -0.68774995411323381 41.281222861057721 200 200 202 0.41858833320029276 232 736 233 736 240 625 235 717 245 601 244 627 237 672 238 672
7696 -19.141457648618037 -0.37964411972603179 40.651812577256088 206 204 207 0.14888480407927859 227 819 228 819 240 630
7697 2.3303774603146312 0.46780528076970185 9.0783174976927157 110 97 106 0.40545220786771125 237 1338 238 1338 240 695
7698 -5.526376657655903 -30.4389129602759 58.547145244186069 152 162 166 0.15241652412425302 229 1152 239 92 240 923
7699 -4.1526509381873691 -28.398493444832784 60.65526574633089 20 39 59 0.22790725674263221 229 1181 232 1050 233 1050 240 955
7700 -13.453052651241689 -7.5673796762464374 35.04049401934715 85 85 75 0.37344819052440376 194 1046 239 432 240 1139 237 456 238 456
7701 -21.596140050269504 0.39420693508227611 41.400812964340915 205 203 206 0.60524772153378747 217 1043 218 1043 240 1267 234 766
7702 -16.807241682180898 -12.948279334731494 32.519564914740442 15 18 0 0.24213687808793458 202 2490 203 2490 240 1719
7703 -13.634721359386228 -14.757122169441162 38.850103361062963 36 35 41 0.17793860970238221 210 2828 211 2297 240 1893
7704 -15.973649626964024 -19.887788318381315 38.668170570010624 76 75 81 0.85532560549777992 205 382 227 200 202 383 203 383 204 387 228 200 229 208 230 201 232 175 233 175 238 156 237 156 240 107 244 126 234 178 245 92
7705 -10.457207407222802 -18.36681865598981 44.81341022528354 59 62 49 0.28637039251360019 194 614 195 590 205 496 197 527 244 205 198 527 199 532 200 516 189 697 191 598 210 444 240 185 204 529 207 500 208 500 219 366 220 350 225 304 227 299 228 299
7706 -16.732729516944108 -9.8918395591315225 32.715211576679692 47 45 47 0.59799987847091807 199 1944 200 750 210 647 206 575 217 589 218 589 220 1492 216 415 225 455 197 769 198 769 229 1327 240 1073 205 2647 222 1470 223 1470 227 1817 228 1817 238 1543 237 1543 239 1100 236 989 211 1465
7707 -3.6882522561888815 -8.8189897581998302 100.2380932288406 68 66 54 1.1172708591398139 224 798 225 721 229 709 230 701 231 598 235 634 242 506 243 506 234 673 222 825 223 825 238 593 237 593 240 1220 187 3080 188 3080 189 3116 194 3248 197 2738 198 2738 200 2593 202 2184 203 2184 207 2574 199 2683 199 2994 190 3128 195 2869 186 3093 192 2936 193 2936 192 3252 193 3252 208 2574 209 2559 212 2375 213 2375 214 2385 217 2579 218 2579 220 2419 239 1239 241 982
7709 -17.913566124186019 -21.083217053347127 35.620831989280433 66 53 44 0.5327468046688133 211 192 236 69
7710 -15.726955552195024 -19.018462727571343 37.702910392871651 60 63 70 0.23123814474961801 222 228 223 228 236 116
7711 -13.739200910140886 -17.921957373303588 39.895649428312005 62 63 68 0.28694975762052616 207 464 208 464 236 151
7712 -14.332545437479325 -8.9926725815364943 32.943413764528444 100 97 78 0.17852763919986672 225 493 231 411 236 297
7713 -9.0008404055349747 -10.656410811021953 42.840946997294523 60 60 60 0.76200857919099252 211 558 231 417 236 308 241 305
7714 -12.83614763277043 -4.4465429127504148 35.079763447187624 70 66 37 0.20485348316383425 194 1216 195 1134 236 457
7715 -1.7657546700506617 -4.5567893593687767 123.14481815284326 38 38 8 0.92831067377950804 207 1189 208 1189 217 1006 218 1006 219 988 220 905 222 906 223 906 224 895 225 811 226 548 227 793 228 793 229 768 239 642 236 570 214 1077 221 628 211 880 189 1516 191 1382 195 1292 197 2271 198 2271 199 2211 202 1213 203 1213 204 2214 206 1888 209 2114 210 2011 196 2133 200 2114 186 1518 241 489
7716 -37.324884808927877 1.2593059352981442 66.495980945296139 142 140 143 2.1768881913298728 220 940 240 648 236 611
7718 -12.01329172685905 -32.895183664517454 50.265745957283414 17 22 16 0.88295760485354247 222 1211 223 1211 236 810
7719 -13.432732020531777 -21.924312855864127 41.39903550960338 30 31 25 0.72143152882782069 185 1799 186 2043 236 858
7720 6.2066619056199412 -26.221258761202296 84.537721526587262 5 30 59 0.93333626827593008 196 545 216 337 236 949
7721 -8.917121320282865 -13.293039564254403 44.603107892637205 18 17 22 0.40268966788654242 196 612 206 534 236 970
7722 -12.358956108980363 -8.0489132028168466 37.105302140560099 105 101 90 0.22000191316160542 197 2074 198 2074 236 1042
7724 -0.029893700362228031 -4.1793351284906164 116.37603351055976 101 101 77 0.72993049114580544 200 1188 235 1309 236 1167 221 629 227 1550 228 1550 197 1234 198 1234 199 1230 201 966 202 1215 203 1215
7727 8.5223073268695479 -25.811630762653742 90.512891493867215 87 115 158 1.3438957622414112 191 3250 231 1828 236 1649
7728 -12.405236350460376 -15.456528140218104 40.223540142320715 68 69 74 0.28214885622163388 221 1934 236 1777 241 1458
7729 -1.4222533175267709 -29.471720794515321 63.682164235796215 179 195 221 0.41196048064070112 222 2683 223 2683 236 1874
7732 -19.748894229482932 -28.726793856083034 39.203628450142233 61 60 63 0.78091679102420042 205 114 191 164 207 103 208 103 209 107 229 50 236 14 196 1453 211 1186 221 917
7733 -10.620089483159765 -5.8278382058433644 37.354791233855956 97 98 78 1.1838890672756772 244 464 219 782 238 513 237 513 236 412 192 1102 193 1102 197 1025 198 1025 199 1008 194 1155 195 1079 187 1155 188 1155 190 1086 191 2408 186 1266 207 2036 208 2036 214 881 217 1776 218 1776 219 807 220 744 225 648 224 1619 227 640 228 640 229 630 230 1349 238 1194 237 1194 239 1198 234 1308 240 471
7734 -9.9689022865153181 -6.4883305214003695 38.927735536827768 103 102 74 0.71506400958112215 200 972 217 802 197 2128 198 2128 199 2069 192 2310 193 2310 194 2901 218 802 239 1574 240 1535 236 1069 242 1077 243 1077 234 1303
7735 -19.127677095591647 -25.753782586517925 37.654468436049768 179 169 166 0.44221236450569257 196 2294 211 1846 236 1287 192 230 193 230 194 230 202 173 203 173 197 1619 198 1619 199 1602 200 189 204 151 189 1942 187 219 188 219 190 1704 191 1807 186 254 185 1679 207 166 208 166 209 166 209 1547 210 147 212 150 213 150 214 150 206 142 215 124 219 1330 220 1221 216 82 223 77 222 77 225 88 224 86 227 70 228 70 230 61 235 51 232 49 233 49 231 52 234 59 238 912 237 912 239 37 240 866
7736 -13.868338303988875 -8.2390490656132975 34.539611753360525 100 99 95 1.3179200180173098 235 1848 236 1030 195 946 205 811 199 860 190 2110 191 981 186 1096 186 2371 190 957 185 955 244 1064 209 816 210 751 212 1744 213 1744 215 1680 220 2046 216 509 225 551 224 573 201 1649 239 413 240 399 245 1012
7737 -12.499205506809957 -8.7473314347671192 36.639848484826118 56 59 41 0.85348666193807277 186 2367 190 2702 191 2294 209 2452 206 2215 220 2041 223 2053 222 2053 221 1672 231 1574 236 1025 202 896 203 896 185 945 212 1746 213 1746 232 463 233 463 234 489 241 1257
7738 -8.5973747539045284 -4.3709027819947401 47.62442736557761 104 110 67 0.73869338015401398 217 914 218 914 232 660 233 660 235 1272 234 676 236 500 192 2928 193 2928 194 2939 195 2862 205 2459 204 2683 202 2665 203 2665 197 2218 198 2218 199 2153 200 2583 189 3109 187 3077 188 3077 190 2804 191 3011 186 3089 185 2722 196 2074 207 2573 208 2573 209 2558 210 2412 201 1803 214 974 206 1841 238 1246 237 1246 240 1223 241 990 245 1100
7739 -11.046545772399369 -18.318332222646056 43.568972148815064 76 73 63 0.43972157586419397 191 591 206 404 236 173 242 183 243 183 244 200 204 511 202 507 203 507 197 518 198 518 199 515 189 686 187 614 188 614 190 614 196 450 207 485 208 485 209 460 210 427 212 422 213 422 217 375 218 375 219 354 220 339 225 299 224 329 227 294 228 294 229 290 230 267 235 230 234 254 238 229 237 229 239 198 240 179 245 163
7741 -13.791318624004646 -14.462456642689586 37.928279528283674 58 57 62 0.3235178453007424 192 3146 193 3146 195 3065 242 1603 243 1603 189 3348 187 3322 188 3322 190 3036 185 2960 207 2776 208 2776 210 2613 212 2568 213 2568 240 1448 214 2225 232 1611 233 1611
7742 -12.513193646728981 -20.291892665075565 42.700663159326879 50 47 38 0.92937925757440876 242 142 243 142 199 1759 200 418 185 494 196 1682 201 339 227 1198 228 1198 229 234 230 1149 232 1074 233 1074 231 1007 235 1045 236 889 243 1741 192 3361 193 3361 242 1741 244 1794 194 3363 195 3290 205 2846 204 3095 202 3060 203 3060 197 3162 198 3162 199 3097 200 2989 189 3576 187 3281 188 3281 190 3224 191 3442 186 3484 185 3143 196 2963 207 2948 208 2948 209 2714 210 2589 201 2689 212 2534 213 2534 214 2534 206 2654 215 2442 217 2457 218 2457 211 2268 219 2561 220 2504 216 2416 223 2602 222 2602 225 2376 224 2630 227 2237 228 2237 230 2108 221 2120 232 2047 233 2047 231 1967 226 1901 235 1966 234 1916 238 1920 237 1920 239 1901 240 1863 236 1760 241 1583 245 1705
7743 -16.73228173621446 -16.050670136212954 34.979731542003876 87 87 92 0.69348578958881102 195 2665 202 1821 203 1821 205 1657 197 2543 198 2543 199 2486 200 2385 189 2170 187 2867 188 2867 190 1910 207 1742 208 1742 209 1730 212 1560 213 1560 214 1591 215 1515 223 286 222 286 227 278 244 190 228 278 229 1224 230 253 230 261 234 237 227 270 228 270 238 1027 237 1027 192 2733 193 2733 194 2728 242 919 243 919 195 2664 204 2483 202 1820 203 1820 197 2542 198 2542 199 2487 200 2386 187 2868 188 2868 191 2814 186 2889 185 1891 196 2413 210 2232 212 1561 213 1561 215 1514 217 1530 218 1530 219 1464 220 1377 225 1889 224 1980 206 2657 211 2279 223 2284 222 2284 229 1223 230 260 232 1100 233 1100 239 1028
7744 -13.558463140564765 -11.098470777254384 36.433910878298391 24 24 20 1.0999560387709899 192 2158 193 2158 195 809 205 702 194 2161 204 2548 244 1424 202 739 202 1946 192 2150 193 2150 205 677 203 739 203 1946 197 1973 198 1973 199 1936 200 1842 189 2293 189 2302 187 2255 188 2255 190 2042 191 2225 186 2294 185 2011 242 304 243 304 244 316 207 1869 208 1869 209 1863 212 1685 213 1685 214 1701 215 1622 217 1639 218 1639 219 1557 220 1477 216 1368 223 1460 222 1460 225 1416 224 1486 227 1318 228 1318 229 443 230 1241 232 1200 233 1200 231 372 231 1098 235 1140 234 1206 238 1086 237 1086 239 1091 240 1062 236 977 211 1454 221 332 241 1237 245 298
7745 -12.598292156458982 -4.2927286608901474 35.337919057315297 79 77 57 0.94015257646012507 205 1943 242 1108 243 1108 202 2133 244 1142 203 2133 197 1072 198 1072 199 2117 200 1042 186 2504 185 2195 207 1019 208 1019 209 2043 210 957 212 1872 213 1872 214 933 206 1823 215 1784 217 1810 218 1810 211 1622 219 1730 220 1650 224 762 227 693 228 693 230 665 221 1303 216 1552 232 626 233 626 231 1239 235 1251 238 1231 237 1231 239 1229 236 465 194 1227 195 1153 197 1080 198 1080 201 833 192 1168 193 1168 223 796 222 796 225 701 245 1078
7746 -12.60798599690113 -13.65032508503044 39.784654966220423 66 67 72 1.264387780661749 191 3467 196 2985 201 2709 206 2481 192 2773 193 2773 244 1412 194 2768 195 2708 205 2318 204 2527 202 2503 203 2503 200 2439 189 2250 187 2901 188 2901 190 2645 207 2787 208 2787 210 2267 212 2228 212 2572 213 2228 213 2572 214 2236 215 2142 217 2155 218 2155 211 2475 219 2094 220 2530 216 2440 223 2312 222 2312 225 2219 224 2321 221 1945 226 1927 238 1518 237 1518 239 1500 240 1457 236 1645 191 780 207 1832 208 1832 225 1389 242 962 243 962 224 430 217 493 218 493 221 1119 232 1173 233 1173 235 1129 241 1223 245 953
7747 -18.018810979651636 -0.81952078569754727 34.134394867722918 158 154 145 1.2905559379252676 209 2584 212 2667 213 2667 214 2659 215 2586 217 2595 218 2595 219 2497 223 2548 210 2717 222 2548 225 2447 224 2417 227 2166 228 2166 230 2186 221 1783 232 2120 233 2120 235 2038 234 2166 239 1613 237 1655 238 1655 222 909 223 909 224 904 227 804 228 804 229 783 232 731 233 731 226 556 235 712
7748 -6.2768506907576391 -37.171806537178888 63.663331918508867 42 45 54 0.66794192575147282 242 825 243 825 244 880 205 176 204 158 190 1698 187 1842 188 1842 194 223 189 223 192 215 193 215 197 187 198 187 191 1804 186 235 185 200 196 1504 209 1555 210 159 201 157 212 168 213 168 214 163 206 156 201 175 215 1346 217 1379 218 1379 211 1225 219 136 220 1232 216 1117 223 1235 222 1235 225 1178 224 1274 229 92 230 1075 231 1437 221 1526 226 879 234 74 238 923 237 923 239 933 240 882 236 822 199 197 202 178 203 178 227 94 228 94 241 1138 245 1247
7749 -15.789762639798861 -23.695053359697809 40.77749111681802 7 7 10 1.0032557226631305 192 1887 243 845 193 1887 242 845 244 894 194 1895 195 1760 205 1539 204 1695 202 1689 203 1689 197 1713 198 1713 199 1675 200 1624 189 2036 187 1950 188 1950 190 1779 191 1903 186 1988 185 1751 196 1586 207 269 208 269 209 267 210 228 212 2131 213 2131 214 1486 215 1391 217 1411 218 1411 219 1369 220 1265 223 1265 222 1265 225 1215 224 164 227 1128 228 1128 229 1145 230 126 232 1005 233 1005 231 944 235 981 234 1043 238 952 237 952 239 949 240 904 236 1305 242 1725 243 1725 244 1777 201 2440 211 2242 216 2186 232 1845 233 1845 226 1887 235 1761 234 1885 239 1691 241 68 241 1399 245 846
7750 -12.678557708577346 -5.7240491858850264 35.536315598030775 62 62 43 0.34867331166384141 243 442 192 1087 193 1087 242 442 244 472 194 1140 205 934 204 2074 202 2096 203 2096 197 2137 198 2137 199 2079 200 1976 189 2455 187 2426 188 2426 190 2200 191 2402 186 1250 185 1090 196 2016 207 955 208 955 209 2001 212 849 213 849 214 1827 206 1781 217 1764 218 1764 211 1580 219 788 220 1610 223 718 222 718 225 1545 224 695 232 577 233 577 238 1193 237 1193 239 1200 240 1183 236 1078 187 2427 188 2427 210 885 215 1748 224 696 219 789 227 638 228 638 229 628 230 614 232 576 233 576 245 1055
7751 -15.335941009115128 -4.5767778056879225 32.727016745293568 130 126 126 1.075938526272407 192 2342 193 2342 195 2240 205 981 204 1051 202 2114 203 2114 187 1188 188 1188 186 1305 199 1041 209 983 201 806 194 1176 200 1000 189 1273 212 884 213 884 217 854 218 854 216 627 223 753 222 753 225 1570 224 733 230 637 234 1329 238 544 237 544 239 1216 236 1102 227 1899 228 1899 230 1787 235 1624
7752 -10.668900978774056 -15.135336084819823 43.647803570004136 70 69 72 1.0828676215625634 192 717 193 717 244 997 194 742 204 651 202 1901 203 1901 197 639 198 639 187 761 188 761 191 736 190 733 207 597 208 597 201 1537 212 528 212 538 213 528 213 538 214 546 215 478 217 1598 218 1598 219 473 216 1327 223 1422 222 1422 224 410 229 356 221 278 232 311 233 311 231 303 226 240 234 1181 206 2166 227 1794 228 1794 229 1786 230 1674
7753 -10.229869861666733 -6.3796794668398285 38.292511780854895 127 120 126 0.73009138138382368 192 2311 193 2311 195 2822 204 2061 197 1006 198 1006 199 2072 200 1973 189 3061 187 2418 188 2418 190 2197 186 2456 207 2017 208 2017 209 1992 214 1815 215 1731 217 1754 218 1754 219 1682 185 1081 220 1597 223 2090 222 2090 225 1993 224 2095 232 1288 233 1288 239 481 236 405 206 1773 216 589 226 1140
7754 -10.832093421388075 -5.3001887442978548 37.288464731668164 98 100 78 0.60379568106509462 242 1090 243 1090 244 1119 204 2096 189 2481 190 2229 186 2482 212 1843 213 1843 214 1846 216 620 232 1313 233 1313 231 1228 235 1239 234 607 192 1123 193 1123 224 719 241 950 245 1400 244 1488
7755 -10.888251753096332 -19.474016728413989 44.39429547712605 55 56 49 1.4164695153599201 192 3119 193 3119 194 3117 195 3034 204 2861 202 2835 203 2835 197 2907 198 2907 199 2866 200 2760 189 3313 190 3002 191 3210 186 3261 185 2931 196 2745 209 2722 201 2466 212 2540 213 2540 206 2445 215 2451 217 2123 218 2123 211 2276 219 2382 220 2305 216 1875 223 2280 222 2280 224 2292 227 2049 228 2049 229 2055 230 1943 221 1916 232 1882 233 1882 231 1787 226 1713 238 1930 237 1930 192 536 193 536 244 177 194 547 205 458 209 419 210 398 214 395 215 346 217 340 218 340 220 310 224 295 227 263 228 263 232 225 233 225 235 207 234 228 238 211 237 211 239 1024 240 997 236 150
7756 -17.271083110979259 -22.519444226789872 38.095729018981345 37 34 31 1.0531983935040306 192 2671 243 1304 193 2671 242 1304 244 1334 195 1762 194 1896 205 2221 204 2430 202 1690 203 1690 189 2039 187 2803 188 2803 190 1783 191 2753 186 413 207 2342 208 2342 209 2310 210 2188 201 2071 206 2071 217 1415 218 1415 211 1274 219 193 220 1270 216 1825 223 1922 222 1922 224 1299 227 1129 228 1129 229 135 230 124 232 1549 233 1549 231 111 231 1756 226 902 235 1446 234 1581 238 98 237 98 239 1431 240 1664 236 65 196 242 199 299 227 127 228 127 232 114 233 114 234 112 241 1150
7757 -19.140793608785042 -25.773429775957752 37.724581005238917 144 131 123 0.56604615214034681 192 1788 193 1788 244 870 194 1817 195 1684 205 1471 204 150 202 174 203 174 197 1618 198 1618 199 1601 200 188 189 1941 187 218 188 218 190 1703 186 255 192 229 193 229 185 1678 207 165 208 165 209 1548 210 148 212 151 213 151 214 151 206 141 215 125 217 1369 218 1369 219 1329 220 1220 216 83 201 1306 223 78 222 78 227 71 228 71 230 60 232 50 233 50 231 51 235 52 238 911 237 911 240 867 236 1288 196 2293 221 1514 241 730 226 868
7758 -13.797018817003869 -17.004839422993836 39.370343204412947 47 46 54 0.66510924678082606 201 405 211 350 192 2736 193 2736 205 1668 197 2549 198 2549 185 2524 209 1744 207 489 208 489 210 428 214 2203 215 2106 217 1534 206 1513 218 1534 227 1237 228 1237 229 1233 230 1648 231 1036 238 1494 237 1494 239 1036 240 1014 236 910 241 164
7759 -15.538546185182613 -24.246601047347337 41.244802925968877 85 88 89 0.70059623927744996 192 319 193 319 244 75 195 307 205 248 204 242 202 273 203 273 197 275 198 275 199 290 200 269 189 2021 190 342 191 343 186 379 185 305 207 257 208 257 209 255 210 218 212 223 213 223 223 129 222 129 225 135 224 154 227 128 228 128 229 131 230 119 238 91 237 91 240 66 236 64 244 71 235 90 242 60 243 60 234 105 232 105 233 105 245 62
7760 -5.9429045360456794 -35.471247973848506 63.028745409132881 75 79 88 1.5625877000573858 194 3340 202 3043 203 3043 187 3229 188 3229 191 3153 186 3212 185 2869 196 2709 209 2912 210 2779 214 2707 215 2644 211 2230 219 2337 243 836 192 1814 193 1814 242 836 244 888 194 1849 195 1713 205 1504 202 1643 204 198 203 1643 197 220 198 220 199 1626 200 1578 187 1867 188 1867 190 2517 185 1690 207 1585 208 1585 209 2287 210 1484 201 1332 212 1412 213 1412 214 1455 206 2040 215 1366 217 1391 218 1391 220 1877 216 1800 223 1898 223 2239 222 1898 222 2239 225 2144 224 2467 227 1108 227 2214 228 1108 228 2214 229 2206 230 101 232 993 233 993 231 1443 235 967 235 1946 234 1881 238 937 237 937 239 1879 240 1381 240 1841 236 1578 206 2039 216 1801 221 1528 231 1444 226 1382 241 1568 245 835
7761 -18.193983648677207 -24.474036781945937 37.319422977811087 43 39 36 0.48513701961348432 226 876 241 43 221 1525
7762 -2.0343757558314568 -29.543184886929073 69.01453707099104 11 30 41 0.23140173625257476 221 170 241 141
7763 6.47531680211336 -25.807524655185905 83.434282041123012 0 0 0 0.057585995192452152 186 803 231 307
7764 -12.203225035452613 -11.411585338242102 38.68422056763378 19 18 23 0.17909083764712611 206 1620 241 271 211 1458
7765 -10.745425008575126 -6.4649033270998446 37.422140576856584 58 55 49 0.44724522804768996 206 754 241 379 201 776
7767 -10.850193591505565 4.7512021932643256 40.988992142420756 0 0 0 1.2942803015535871 215 1104 230 867
7768 -5.8899357766730596 -27.887939353002558 54.975101663853692 24 38 50 0.68524732000265642 214 272 222 173 223 173 225 166 226 128 241 755 221 104
7769 -9.983398346217955 -16.587957994747853 45.876309415608361 51 55 56 0.058057771984956187 192 2757 193 2757 241 818
7770 -13.126240714253992 -13.239309562042472 37.674280888944331 15 14 19 0.47503454200088546 196 562 201 1540 241 825
7773 -1.9987964873872437 -29.843039737168219 61.01191391795733 230 238 255 0.2386782374799209 231 1473 236 1318 242 1317 243 1317 241 1164 240 1674 241 1411 245 1524
7775 -11.626663481377756 -16.056179602196345 42.608952727367097 19 19 26 0.665122082854125 221 1092 226 1454 241 1216
7777 3.1908284848797299 0.015702968198677211 5.2747246557051843 0 0 0 0.11610160490803589 239 1330 240 1597
7778 0.14216477565955543 0.45239366231702233 193.30620666260387 76 80 29 1.2379570059530305 206 2945 219 2742 220 2680 221 2302 222 2648 223 2648 224 2676 225 2537 226 2070 227 2397 228 2397 229 2399 230 2268 231 2125 232 2203 233 2203 234 2254 235 2116 236 1925 237 2074 238 2074 239 2046 240 2024 242 1886 243 1886 244 1935 241 1743 215 2936 204 3365 207 3239 208 3239 209 3210 205 3122 212 3015 213 3015 214 3008 217 2927 218 2927 216 2612 211 2719 210 3079 192 3665 193 3665 194 3642 195 3577 199 3373 200 3275 202 3344 203 3344 187 3840 188 3840 189 3884 190 3528 191 3746 245 1850
7779 -10.238945950984672 -6.6762223835482635 38.522715128310679 66 62 48 0.87036646014441454 211 678 221 473 241 926 199 977 189 1203 187 1115 188 1115 190 1061 191 1115 210 854 227 1429 228 1429 238 497 237 497 240 453
7780 -9.3387621485287085 -5.3173473683305099 40.356077537286971 75 76 40 0.73006055947164661 244 1127 199 1049 200 1020 186 2498 189 2498 190 2243 214 1853 227 1469 228 1469 241 402 224 738 239 520
7781 -13.585491758954253 -10.464681110158288 35.80892951946371 54 55 42 0.8362243347191286 206 1626 231 1557 241 860 243 1000 192 2173 193 2173 242 1000 195 2066 244 321 194 887 242 310 243 310 205 716 204 1931 202 1971 203 1971 189 2975 187 2269 188 2269 190 2054 191 2235 186 2311 185 2025 196 655 207 1885 208 1885 209 2431 210 1751 212 1696 213 1696 214 1713 215 1630 217 1650 218 1650 219 1574 220 1491 224 478 227 1330 228 1330 229 1331 230 1251 232 385 233 385 226 1047 235 1143 234 410 238 360 237 360 239 1101 240 1075 236 988 245 305
7782 -8.9161078909992018 -10.351877894653091 42.979853064808303 26 27 21 0.70286117566182782 191 2284 216 1408 241 885 211 1503 221 1191 226 1071 243 1025 192 936 193 936 242 1025 244 372 194 2833 195 2116 205 1815 204 1973 202 1998 203 1998 199 2582 200 2484 189 1044 187 954 188 954 190 930 209 2447 210 2313 212 1731 213 1731 214 1750 215 1666 217 653 218 653 219 1609 220 2037 223 1511 222 1511 225 1461 224 1538 230 1713 232 1234 233 1234 231 425 234 1244 240 376 245 1002
7783 -11.576566257557174 -18.41543688970761 42.945735634439508 56 56 46 0.62252124893907279 196 1721 216 1880 194 2028 195 564 205 484 202 1813 243 1348 192 2726 193 2726 242 1348 244 1387 204 2480 203 1813 197 1848 198 1848 199 1809 199 2485 189 2166 191 572 186 673 190 607 207 1748 208 1748 209 1738 210 1624 201 2144 212 1566 213 1566 214 1595 206 2122 215 1521 217 1529 218 1529 220 331 223 1362 222 1362 225 291 224 1394 227 1233 228 1233 229 1227 230 262 232 245 233 245 231 236 235 1495 234 1135 234 1632 238 1491 237 1491 239 1031 240 172 236 907 241 1202 245 912
7784 -9.7282508001033712 -9.4439633730923269 39.276736863120057 55 58 40 0.69697476629670385 230 1284 241 887 197 2633 198 2633 199 1980 200 2487 189 3000 187 2326 188 2326 201 2224 224 1541 245 1003
7785 -14.964087285484865 -8.5536629260294053 33.835160809330112 109 100 76 0.74436698397211232 200 841 187 2329 188 2329 185 2067 225 1469 241 321 192 3181 193 3181 194 3183 195 3100 205 2666 204 2928 202 2899 203 2899 197 2974 198 2974 199 2931 200 2833 189 3383 187 3351 188 3351 190 2699 191 3277 185 2989 196 2793 207 2815 208 2815 209 2448 210 2650 212 2596 213 2596 214 2583 206 2503 215 2511 217 2210 218 2210 211 2327 220 2356 216 1957 223 2332 222 2332 225 2236 227 2102 228 2102 229 2105 230 1992 221 1960 231 1843 226 1764 235 1572 240 1497 245 1593
7786 -11.050501236212062 -15.798806013958577 42.948884613153751 83 83 90 0.3892063647056177 196 2764 206 2157 241 814 201 475 211 1402 221 257 231 288 236 938
7787 -11.563286598077552 -7.2224228069584449 37.063186669429754 66 65 51 0.6161454512476352 211 648 216 549 221 458 234 537 241 360 191 1062 215 721 225 598 224 636 238 475 237 475 239 453 240 436 245 1031
7788 -14.988539484927902 -6.6378690916662801 33.388429382624452 72 73 40 2.1536575884973002 192 2268 193 2268 204 951 212 1776 213 1776 214 1782 215 1706 216 1975 221 1243 236 1054 241 1279 190 1028 209 892 210 825 212 796 213 796 214 1798 215 1721 220 1574 223 1568 222 1568 224 1599 230 1750 238 1597 237 1597 191 3300 192 2861 193 2861
7789 -16.699819942452198 -19.557730021943414 36.073760921711624 124 114 105 0.93298323899252389 214 316 224 209 221 121 241 99 244 118 196 331 201 308 219 259 226 139
7790 -2.8736228008867872 4.7230146107075575 13.356660601291424 0 0 0 2.3326090685401453 232 1820 233 1820 235 1399
7791 -5.5316375673587981 -34.603578873280448 63.868593404762095 220 223 232 0.065837781502356849 187 290 188 290 245 65
7792 -6.8600039975613019 -30.690146427284763 57.66514271332062 168 184 207 0.25442073931943288 217 1410 218 1410 245 69 220 1264
7793 29.72389676854915 -80.965636320644364 179.14268389721948 212 213 222 0.35568936072759688 204 270 205 272 210 257 211 203 212 253 213 253 214 264 224 188 227 176 228 176 229 176 230 174 232 154 233 154 241 102 244 121 245 83 217 222 218 222 231 138 234 155 237 138 238 138 240 95 239 122
7794 -1.8857608401268695 -29.715962621937141 68.416665038564702 97 119 134 0.54478492188971217 229 238 231 200 245 126
7795 -9.8180510317642131 -15.316738459112189 44.728581032976528 9 8 13 0.4901577015153456 234 322 235 292 245 230
7796 -14.147665770493047 -11.203898540967621 35.008807393629574 62 61 34 0.33018978556174056 217 540 218 540 245 261 212 591 213 591
7797 4.1089279853182683 -40.579496974280744 161.07544814265282 30 33 22 1.0168776774826973 212 654 213 654 214 679 216 428 217 602 218 602 219 592 221 360 222 530 223 530 224 500 229 460 230 1255 231 1118 232 397 233 397 234 422 235 383 237 1102 238 1102 240 331 242 1003 243 1003 244 1025 245 316 226 1052 207 1889 208 1889
7798 -9.1880282249557848 -12.361661496426592 46.090903435664842 52 50 53 1.3503337805855111 226 1050 245 331 221 356
7799 -8.6943355345428461 -8.1317604131964032 42.754307450203591 5 9 0 0.25806281095522704 234 536 239 451 245 421
7800 -9.0705118435292604 -6.5135079355516563 40.806393470299625 72 80 57 0.21851185886228824 224 691 245 451
7801 -4.2400420162987196 -8.5242812920141109 96.781860839622908 62 62 50 0.7774952404952501 221 2374 216 2689 222 2720 223 2720 224 2743 225 2604 226 2132 227 2503 228 2503 229 2447 230 2321 231 2224 232 2309 233 2309 217 2918 218 2918 219 2816 220 2745 214 3000 212 3007 213 3007 215 2926 234 2355 235 2205 236 1977 237 2129 238 2129 206 2938 209 3199 210 3071 202 3394 203 3394 204 3417 205 3166 207 3230 208 3230 211 2712 201 3034 196 3302
7802 -12.133276185273035 -3.4955034324136371 36.505283939792683 70 74 49 0.37017261501965953 219 902 222 821 223 821 245 542
7803 -16.384768564420323 -1.1114698187035312 38.024125348637291 141 139 139 0.75159336213852024 236 581 239 657 240 617 242 578 243 578 244 617 245 590 237 662 238 662
7804 -5.5120073417043027 -26.395055129858985 56.928554846201976 3 11 12 0.95579156560978318 217 1471 218 1471 219 274 220 1329 245 875 212 330 213 330 210 327 219 284
7805 -16.06471723796848 -17.297289842154278 34.712095043535754 86 74 74 0.48534239349348968 222 1327 223 1327 236 885 245 880
7806 -14.132037963017716 -4.4464472980044896 34.474127312213696 86 85 55 0.65973813984835761 189 1301 237 1225 238 1225 242 1107 243 1107 245 1077 234 634
7807 -8.1641458974802354 5.9349854978891328 50.20461072558723 0 0 0 0.57848907165453189 222 2188 223 2188 237 1668 238 1668
7809 3.0356246839399437 0.33704661260301411 7.2567040254786352 61 5 18 0.94156680354315636 238 755 245 1472 237 755
7814 -1.739661690929855 -11.977703094426261 41.399086790043739 2 8 0 1.244253464592028 237 2277 238 2277 239 2244 240 2220 241 1941 242 2081 243 2081 244 2121 245 2029
7815 -17.883582190214273 -23.466075839051832 37.362975407185218 73 69 66 2.6610831695692219 192 287 193 287 197 238 198 238 207 217 199 260 208 217 231 84 239 62 191 313 245 41 195 284 205 235 204 225 202 255 203 255 197 257 198 257 224 139
7816 -14.784669275558004 -19.912231800603539 40.143769250937154 61 62 64 1.6014172744039468 244 141 204 407 197 423 198 423 199 412 200 400 212 346 213 346 215 301 223 232 222 232 225 227 224 244 245 102 192 469 243 136 193 469 242 136 194 495 195 482 205 398 197 1789 198 1789 199 411 200 402 187 505 188 505 191 491 185 480 186 568 196 374 207 393 208 393 210 346 201 330 214 357 215 1469 211 280 216 202 223 230 222 230 225 226 224 247 227 215 228 215 230 1141 221 148 232 192 233 192 231 184 226 157 234 194 241 122 245 100
7817 -13.83761619469977 -20.089826349239267 41.145640585138025 3 5 5 1.2185769796835282 197 443 198 443 200 424 224 262 245 112 200 406 202 414 203 414 204 414 207 402 208 402 210 350 201 336 192 3111 193 3111 242 1737 243 1737 194 3107 244 1902 195 3287 205 2588 197 2514 198 2514 200 2748 189 3573 187 3275 188 3275 190 2990 196 2961 207 2740 208 2740 201 2459 206 2104 217 2455 218 2455 223 1319 222 1319 225 1271 224 251 227 2046 228 2046 229 2050 221 154 221 1904 231 1965 226 161 239 153 240 1988 236 1880
7818 -16.287673805804719 -23.20536904445542 39.749522205324169 75 74 71 0.63385351523474187 199 305 186 403 185 331 207 268 208 268 209 264 215 1396 217 199 218 199 211 186 219 187 224 161 245 845 224 160 225 141 231 943 239 80
7819 -5.7814812901885588 -31.328407501797606 60.112077326327828 162 172 181 0.68065885507330592 192 321 193 321 217 1423 185 299 218 1423 220 1275 227 151 228 151 238 112 237 112 239 91 240 922 245 856 242 95 243 95 223 145 244 93 222 145 224 1307 191 330
7820 -11.655529112324563 -3.5131629428383913 36.168281265230142 168 167 169 0.91511408640400727 196 2061 200 3088 205 2724 207 3032 199 3191 197 3246 198 3246 208 3032 209 3023 210 2900 212 2828 213 2828 214 2820 206 2556 215 2835 217 2842 218 2842 211 2533 219 2729 220 2671 216 2597 221 2373 222 2767 223 2767 241 1734 242 1878 243 1878 244 1928 225 2530 224 2566 227 2388 228 2388 229 2302 230 2179 229 2301 232 2195 233 2195 231 2115 226 2060 235 2108 234 2245 238 2065 237 2065 239 1970 240 1935 239 1969 236 1823 236 1824 245 1776
7821 -11.889954686478234 -14.525261123374579 40.899362903604661 20 19 24 2.2487806570706628 243 953 192 2092 193 2092 242 953 244 993 194 2101 195 682 205 592 204 1869 197 1913 198 1913 199 1881 200 611 189 2240 187 2173 188 2173 190 1979 191 2151 186 2227 196 1787 207 1810 208 1810 209 1808 210 1681 201 490 212 1634 213 1634 214 1650 206 2161 215 1580 211 1407 219 451 185 707 220 1431 223 393 222 393 225 370 224 1441 227 1282 228 1282 229 1283 230 1214 221 268 232 307 233 307 226 1459 235 1116 234 1179 238 1056 237 1056 239 1066 245 947 194 2114 195 1994 205 1732 204 1874 197 653 198 653 199 1889 189 2249 187 2186 188 2186 190 1990 186 2239 196 1799 207 608 208 608 209 598 210 1696 212 536 213 536 214 545 206 1575 217 477 218 477 219 472 220 430 216 336 223 405 222 405 225 379 227 360 228 360 229 355 221 1113 235 290 234 327 240 253 236 948 241 822 245 237
7822 -11.843905515184682 -18.822966270181531 42.637779178296668 23 22 9 0.51154289931997199 243 913 192 553 193 553 242 913 195 542 205 1649 204 1800 202 1805 203 1805 199 1792 189 654 187 583 188 583 190 584 191 560 186 2141 185 1878 214 1579 215 1504 223 1349 222 1349 227 1221 228 1221 232 231 233 231 231 225 206 1491 235 215 234 232 238 1023 237 1023 241 150 196 431 221 200 236 156 216 244
7823 -11.416160627937286 -6.9234380367747139 37.225532132065617 102 98 87 0.43795621935881657 243 1064 192 2290 193 2290 242 1064 244 1084 194 2277 204 2632 197 2109 198 2109 199 2619 200 2529 189 3042 187 2392 188 2392 190 2166 191 2361 186 3021 185 2128 196 1993 207 2005 208 2005 209 1976 210 1858 212 2313 213 2313 214 2322 206 1750 215 2220 217 1738 218 1738 211 2040 219 1662 220 1579 223 1571 222 1571 225 1519 224 1601 227 1426 228 1426 229 1423 230 1330 221 1701 232 1696 233 1696 231 1867 235 1596 234 1291 238 1173 237 1173 239 1172 240 1152 241 918 245 1036 187 2393 188 2393 216 1480 236 1061
7824 -12.363552191177542 -8.5055770715712438 36.718291128223569 54 55 42 1.644421015320523 192 962 193 962 194 1008 202 895 203 895 189 1064 187 980 188 980 190 954 207 821 208 821 212 1745 213 1745 215 665 211 586 227 528 228 528 229 527 230 491 201 668 232 462 233 462 235 444 234 488 236 1026 185 961 222 610 223 610 243 1039 192 977 193 977 242 1039 244 1066 194 1019 195 961 205 820 202 922 203 922 197 2057 198 2057 199 874 200 865 187 992 188 992 190 966 191 998 186 2378 185 2085 196 756 207 834 208 834 209 823 210 757 212 732 213 732 214 755 215 1687 217 686 218 686 219 678 220 617 223 1540 222 1540 225 553 227 540 228 540 229 541 230 499 232 1255 233 1255 226 1087 235 452 235 1187 234 497 238 438 237 438 239 417 240 400 245 387
7825 -14.918417315847504 -22.598606303769078 40.727199270204586 62 63 64 2.0564435159751717 192 3347 243 1727 193 3347 242 1727 244 1780 195 3277 205 2832 204 3085 189 3557 187 3679 188 3679 190 3212 191 3430 196 2947 201 2674 214 2720 215 2654 217 2669 218 2669 223 2456 222 2456 225 2363 224 2478 227 2223 228 2223 229 2216 230 2100 226 1684 235 1954 238 1910 237 1910 239 1889 240 1849 236 1748 241 1405 245 1692 242 1557 243 1557 205 2575 204 2443 202 2425 242 1311 243 1311 203 2425 196 2348 206 2084 217 2082 218 2082 211 1290 216 1836 223 1276 192 384 193 384 204 292 202 314 203 314 189 429 187 395 188 395 191 397 186 443 185 374 207 310 208 310 209 293 201 1385 212 268 213 268 214 269 220 1294 222 1276 225 1838 224 1319 227 1729 228 1729 229 1700 230 1595 221 1557 232 141 233 141 231 1469 238 961 237 961 239 100 236 1314 241 1160 245 1269
7826 -7.9952445721270218 -8.596568007642766 43.689336505721634 35 36 30 0.65691306978494302 192 3428 193 3428 244 1686 194 3427 195 3111 205 2909 204 2951 202 2916 203 2916 197 3228 198 3228 199 2948 200 3060 189 3402 187 3589 188 3589 190 3081 191 3506 196 2810 207 3006 208 3006 209 2797 210 2664 201 2540 212 2800 213 2800 214 2794 215 2531 217 2539 218 2539 211 2024 219 2452 220 2371 216 1454 190 2730 223 2348 222 2348 227 2122 228 2122 229 2112 230 2003 221 1691 231 1590 226 1108 235 1858 234 1976 236 1450 241 1269 245 1600 186 1158 223 646 185 1006 222 646
