# 3D point list with one line of data per point:
#   POINT3D_ID, X, Y, Z, R, G, B, ERROR, TRACK[] as (IMAGE_ID, POINT2D_IDX)
# Number of points: 411, mean track length: 3
546 -4.9016829828586248 17.153235583481298 135.87822110635088 133 122 120 0.033870494603245538 23 1799 89 2497 87 2497
547 5.0375049452495988 17.54889640305036 137.60264810318967 148 138 137 0.34896757385399885 23 2869 89 2498 87 2498
548 4.22860231268315 17.479027881770861 136.89239757175696 169 159 158 0.25105469444049894 23 2870 89 2499 87 2499
549 -1.7948032741851803 17.703416752937009 136.22973126511243 175 165 162 0.21534732652383315 23 2875 89 2507 87 2507
550 -8.9648201312578895 17.59973207482081 137.97104284695155 192 182 180 0.49981163635208675 23 1837 89 2509 87 2509
551 -7.7532808528122965 17.612075706691375 137.41457292102891 159 149 147 0.17790234614152931 23 3331 89 2510 87 2510
552 -6.9459210329988386 17.755948896926441 137.15995225932514 192 182 180 0.0089882728839057718 23 2876 89 2515 87 2515
553 -6.0715418576371132 18.039680116747782 136.90027673521016 164 154 152 0.084957208850487145 23 2880 89 2521 87 2521
554 1.0087897087189219 18.405137073648135 136.72480726144059 169 164 161 0.52821281384672214 23 2889 89 2526 87 2526
555 1.0087897087189219 18.405137073648135 136.72480726144059 169 164 161 0.52821281384672214 23 2890 89 2527 87 2527
556 4.366469577080264 18.631199556129491 138.26678897482142 164 159 156 0.28464117133425287 23 2891 89 2528 87 2528
557 2.7209798042962969 18.606479054345563 137.34080479440738 168 163 160 0.12109268450694249 23 2895 89 2532 87 2532
558 -4.0283235220232418 18.691874373167636 137.33364133454668 182 173 168 0.1053173373565765 23 2903 89 2537 87 2537
559 -4.0283235220232418 18.691874373167636 137.33364133454668 182 173 168 0.1053173373565765 23 2904 89 2538 87 2538
560 0.5111917104515229 19.086036625468324 136.80785016159422 95 84 82 0.027780300439430416 23 1944 89 2551 87 2551
561 -6.847355826321035 -19.45636923766504 123.01476486356366 111 110 106 0.23618188345583421 23 2924 89 2570 87 2570
562 -2.9982813736206895 -19.038843781305971 121.35636947645304 59 51 45 0.002050432576452862 23 2926 89 2573 87 2573
563 -9.8163610571006306 -19.07851186674328 124.3660330121939 169 163 157 0.25603248594897138 23 2023 89 2582 87 2582
564 -8.0543219487469973 -18.709802326405118 122.59457257303025 75 69 71 0.41698127832583404 23 2934 89 2583 87 2583
565 -7.1484829223800732 -18.53948239210197 122.55628024550622 95 85 84 0.2235391559448148 23 2940 89 2584 87 2584
566 -7.3776042308353702 -18.472945549427202 122.62328835280486 118 113 110 0.33178568191966851 23 2944 89 2585 87 2585
567 -3.1995811554297267 -18.306449531830221 121.25786355665572 167 155 146 0.13642928633367629 23 2942 89 2586 87 2586
568 -1.9594093877712628 -18.004530014842491 120.83862378018856 19 17 18 0.097457464499165689 23 2946 89 2588 87 2588
569 -0.6251525664580162 -18.078000601157971 121.35364604959695 33 27 27 0.051731474298883619 23 2947 89 2589 87 2589
570 -0.6251525664580162 -18.078000601157971 121.35364604959695 33 27 27 0.051731474298883619 23 2948 89 2590 87 2590
571 -9.9523412582330675 -18.379539198005038 124.37959786137704 85 79 75 0.2586530775797693 23 2949 89 2591 87 2591
572 -5.8362139545826661 -17.744794619756863 122.02900890749618 159 155 146 0.098417025274883496 23 2952 89 2594 87 2594
573 -2.2590883449069299 -17.427317637641558 121.11271928837768 51 47 46 0.68887804654034568 23 2954 89 2595 87 2595
574 -9.8971447481264754 -17.398640610228085 124.27188035415379 78 75 75 0.36725702192592857 23 2080 89 2601 87 2601
575 -4.7053972758056739 -16.959770810677398 122.62954174641393 94 76 63 0.093799423155838571 23 2963 89 2606 87 2606
576 -6.6937392330312253 -16.766630476365776 121.9022188057431 8 8 8 0.17994074919333927 23 2967 89 2607 87 2607
577 -11.346977215768431 -16.793020383871735 124.89984911315332 162 145 120 0.15319598915150268 23 2114 89 2609 87 2609
578 -0.47776635396706452 -16.328995005808661 120.87066353123899 160 144 131 0.18051949392552633 23 2970 89 2610 87 2610
579 -0.017575875195511289 -15.952605426669725 121.06857397961279 227 225 238 0.20415093659960357 23 2125 89 2616 87 2616
580 -4.2477341532523862 -15.977932798637283 121.35786357668873 31 31 30 0.059363970838595209 23 2980 89 2617 87 2617
581 -7.8046442098282185 -15.936537871302924 122.58720799914491 136 123 117 0.11785849204883016 23 2129 89 2620 87 2620
582 -11.615406739418168 -16.226506840414785 125.11313636670357 102 77 55 0.16146990598215602 23 2984 89 2622 87 2622
583 -8.1329143336412066 -15.87591958122826 123.20853767742192 90 84 84 0.29361928934610132 23 2138 89 2623 87 2623
584 -8.2045534025601228 -15.013057386800972 123.22431313942806 32 28 25 0.017201103149568863 23 2999 89 2636 87 2636
585 -11.083832258589631 -15.212516306473988 124.92648114522333 43 36 10 0.14446920853657094 23 2998 89 2637 87 2637
586 -5.4358532721432633 -14.617798838801441 121.23961993135815 44 44 44 0.19198396251329011 23 2169 89 2638 87 2638
587 -3.0834652245138914 -14.500304547894618 120.96386108865039 23 10 7 0.13094299566244652 23 2171 89 2639 87 2639
588 -3.0834652245138914 -14.500304547894618 120.96386108865039 23 10 7 0.13094299566244652 23 2172 89 2640 87 2640
589 0.35694691566760889 -14.416520711947308 121.3951024015375 214 223 237 0.047798684618990707 23 3001 89 2643 87 2643
590 -1.0786139189679187 -14.171808506059396 120.99393835913008 126 114 108 0.065740231781538427 23 3002 89 2645 87 2645
591 -1.7352599800335236 -13.888493484973504 120.88522580495659 48 21 17 0.13169949756276211 23 3008 89 2647 87 2647
592 6.7909371721215654 -14.153900927966092 124.842537236578 159 171 211 0.055795078887574123 23 3009 89 2650 87 2650
593 -7.2081393287127797 -13.724106912373715 122.47538032435081 136 132 128 0.036117623454870657 23 3013 89 2653 87 2653
594 -3.502801276215334 -13.520345570420405 121.44009767103177 44 33 24 0.097733236841804294 23 3014 89 2654 87 2654
595 -1.8537873476226152 -13.486128839101927 121.3799773092726 66 40 33 0.30294865172665775 23 3015 89 2655 87 2655
596 -12.155079392163032 -13.912368344869627 125.45203827153156 135 120 99 0.091213354073887143 23 3016 89 2656 87 2656
597 -2.5164394295882606 -13.348468130511193 120.93880133323135 114 106 100 0.053631095662230253 23 2202 89 2657 87 2657
598 1.2938190664301181 -13.482582231671101 122.1069799105553 206 216 241 0.31306274509294774 23 2199 89 2658 87 2658
599 -7.9925316092451526 -13.45080799631307 122.81950191383235 6 3 0 0.025152636655643695 23 3017 89 2659 87 2659
600 -1.7504594183834585 -13.03416842238399 121.16554495807259 21 12 7 0.069213568512206919 23 3018 89 2662 87 2662
601 -5.1488886132424012 -12.807229888485312 121.59521938090552 135 134 132 0.057143102509842635 23 3025 89 2665 87 2665
602 -2.4093731350748748 -11.927290944313285 121.55884460663279 71 58 50 0.20685389955673519 23 2249 89 2669 87 2669
603 -0.97827594663860573 -11.847121158638402 120.93805181059653 22 9 2 0.16387580561496126 23 3033 89 2670 87 2670
604 -6.5386941874339994 -11.625066577330653 120.53936505914814 124 118 111 0.56707567115529045 23 2262 89 2672 87 2672
605 -6.0498673784055343 -11.852745983677218 122.27650118528582 38 29 20 0.11129853049460238 23 3038 89 2673 87 2673
606 -6.0498673784055343 -11.852745983677218 122.27650118528582 38 29 20 0.11129853049460238 23 3039 89 2674 87 2674
607 -4.9061989129289234 -11.631595817951945 122.47905540368953 96 94 82 0.12077354697264099 23 3432 89 2676 87 2676
608 -2.2075778237607651 -11.422376216581148 121.18172285658704 88 77 73 0.2670481664423448 23 3041 89 2679 87 2679
609 -7.5813262531292418 -11.320190625233334 122.50277000471303 23 9 1 0.12335230650685658 23 3045 89 2683 87 2683
610 -8.9736164552264466 -10.945887826460721 123.60986094000238 50 52 46 0.10594228257515759 23 3443 89 2684 87 2684
611 -4.1560359669877105 -10.502183767001418 121.73227264292458 38 39 21 0.16184951012903662 23 2310 89 2686 87 2686
612 -10.996060223284719 -10.443487904182971 125.22817974052595 165 156 147 0.092689235649657739 23 3448 89 2693 87 2693
613 -7.0673611609572324 -9.9115702220993516 122.5269138112179 120 115 108 0.10583135717351765 23 3061 89 2695 87 2695
614 2.1723653696194254 -9.7571913110145427 121.81827820941655 34 40 30 0.16214621718364708 23 2342 89 2696 87 2696
615 0.99897500372030534 -9.720507874156235 121.66255840531213 13 16 0 0.060082001880040488 23 2340 89 2698 87 2698
616 -12.848423652365605 -9.9586539366164963 126.32096703048377 30 25 3 0.094002177311654223 23 3069 89 2706 87 2706
617 -13.031585815868883 -9.8242093958575314 125.79328701295749 164 156 137 0.25806292147393045 23 2360 89 2707 87 2707
618 2.5945889904868467 -9.0222291553401135 122.04691096837989 34 40 26 0.032763855402380422 23 3075 89 2710 87 2710
619 1.9928691668780867 -8.9961087531668404 122.06398774894649 43 46 27 0.1904255667597142 23 3461 89 2711 87 2711
620 -13.146366272429152 -9.4593306858582729 126.61704749977919 43 36 20 0.014101288180623802 23 3080 89 2712 87 2712
621 -13.146366272429152 -9.4593306858582729 126.61704749977919 43 36 20 0.014101288180623802 23 3079 89 2713 87 2713
622 -2.1284003891464365 -8.8047914188525027 121.38100668071552 92 95 64 0.1168336371767847 23 3084 89 2714 87 2714
623 1.2071686700312128 -8.8211524099452685 121.92862101197444 11 12 0 0.22287113489576341 23 3078 89 2716 87 2716
624 -8.5981053766176156 -8.4099932925264262 123.90878080538448 102 98 95 0.41404558210088283 23 3093 89 2724 87 2724
625 2.6853262359095544 -7.8597822013271754 122.52299252959848 36 39 22 0.28207592161239953 23 2422 89 2732 87 2732
626 -7.8577310366062623 -7.8120692726239742 124.09028740828813 8 7 2 0.41891930134142935 23 3103 89 2737 87 2737
627 6.8835269399656109 -7.3744700508203387 124.16843278196843 106 115 142 0.11816315981895809 23 3106 89 2742 87 2742
628 -14.013050055172791 -7.8388895271950689 127.37119592024882 49 52 28 0.058283021357442101 23 3108 89 2744 87 2744
629 -3.3041095723028251 -7.1728447830547699 123.01820936739576 49 49 23 0.064672136389476845 23 2448 89 2747 87 2747
630 2.816193432070218 -6.950534951082834 122.5588389893973 0 3 0 0.0012976225669797802 23 3480 89 2751 87 2751
631 -1.7310607750203588 -6.700232908898772 122.27460175656363 23 22 6 0.014243748755048248 23 3119 89 2754 87 2754
632 -3.1116952114350638 -6.6641116053585003 122.68320819955538 43 49 39 0.044864843809947243 23 3122 89 2755 87 2755
633 -12.459578380085416 -7.1207229740020068 126.57692884505961 27 21 0 0.092103471968580167 23 3121 89 2756 87 2756
634 -0.85285589479963919 -6.5385456159187996 122.89996874703695 49 40 19 0.0074048630913198426 23 3125 89 2758 87 2758
635 -2.0861285241267709 -6.3991725739246847 120.85443023838924 137 76 83 0.18929958114354997 23 3490 89 2760 87 2760
636 -12.006023829537181 -6.5977919738398194 126.62283169971923 47 48 27 0.0044037033651884343 23 3131 89 2766 87 2766
637 -14.622890954726714 -6.766370293966161 128.13107237957229 175 166 136 0.10072653156266509 23 2484 89 2767 87 2767
638 4.8563023647043551 -5.7075599475033867 123.55929516768279 27 31 18 0.26090878745985469 23 3134 89 2769 87 2769
639 -9.6181366736493796 -5.9175668544209632 124.83588885929127 155 137 127 0.2408492376071254 23 3139 89 2771 87 2771
640 -12.436229063495171 -6.0214093332944483 126.11865279650985 31 30 9 0.45852704588178278 23 2509 89 2772 87 2772
641 7.6318401608199613 -5.7217566908771618 125.03564808992911 36 43 27 0.75627937402618761 23 3135 89 2773 87 2773
642 0.58558185972829779 -5.4191723732117865 121.52351441975004 44 55 69 0.37317023992893938 23 3500 89 2774 87 2774
643 8.5099154566883328 -5.7277007394486485 126.15077920121793 19 28 30 0.52819107193471782 23 2500 89 2775 87 2775
644 -13.212027405656055 -5.9771308098169653 127.40268924142832 69 70 36 0.072408923866652652 23 2511 89 2781 87 2781
645 11.36048618685861 -5.7451601448614076 128.27915421846853 0 8 29 0.074024871774043363 23 3143 89 2782 87 2782
646 0.76561120590552267 -5.0290830920335532 121.91157111162934 61 77 90 0.077777909150213057 23 3151 89 2785 87 2785
647 2.0494076580900211 -4.9355617706132771 121.97275586171331 71 88 110 0.37909340196253377 23 3154 89 2788 87 2788
648 -14.548245306387191 -5.4645219655339385 128.35146645112187 112 111 105 0.085129847350056645 23 2543 89 2792 87 2792
649 11.555524364707232 -5.047530538548223 128.03385696338796 23 56 107 0.071356106358805502 23 2545 89 2794 87 2794
650 -5.5657226514099989 -4.6909146559017225 124.034233578666 85 90 86 0.11150427126648248 23 3158 89 2799 87 2799
651 -5.5657226514099989 -4.6909146559017225 124.034233578666 85 90 86 0.11150427126648248 23 3157 89 2800 87 2800
652 6.9646240218688495 -4.3878802077450318 125.23063498943436 7 9 0 0.61864007033660728 23 2565 89 2804 87 2804
653 11.965034366435049 -4.6256837294534252 128.92297089879924 7 11 22 0.21802540987112753 23 2566 89 2806 87 2806
654 -0.34717919840982714 -4.1499606800977098 122.87543119271955 68 92 96 0.26209080587274786 23 3164 89 2807 87 2807
655 11.476013693629371 -4.2320632968066052 128.38377762068185 8 13 12 0.034878615275943825 23 3168 89 2809 87 2809
656 -13.446244016141994 -4.202512000467709 128.40685134724589 148 140 127 0.08176710690115245 23 2593 89 2814 87 2814
657 -12.953676727469599 -4.0181222196911826 127.49050593212559 135 9 26 0.66522570429785899 23 2595 89 2815 87 2815
658 7.2250944576227791 -3.5271214787304368 125.69199751268651 34 37 18 0.29569508982189086 23 3178 89 2816 87 2816
659 0.84506921519248657 -3.2769514125484092 123.28861142676499 36 56 65 0.025526443459475075 23 3181 89 2817 87 2817
660 4.3420235592627616 -1.8939923075647604 124.68758220665055 88 111 117 0.038827657156625485 23 3196 89 2829 87 2829
661 -0.3555694819655873 -1.6336927804692372 124.16020168688563 53 60 74 0.061896592583668565 23 3205 89 2833 87 2833
662 -6.8989150039191873 -1.6139667474353205 126.38808370995568 32 45 51 0.07046249941710743 23 3207 89 2839 87 2839
663 9.403183690329648 -1.0510735512706522 128.33227022247283 203 97 110 0.21574895927196544 23 3219 89 2844 87 2844
664 -15.665411843280795 -1.1814169684344293 131.06189214879939 173 159 147 0.016504278040643288 23 3224 89 2850 87 2850
665 -3.6285906066779616 -0.32514392943430492 125.58502437915692 178 14 46 0.025683543483964604 23 3551 89 2851 87 2851
666 -15.537149620146943 -0.072582935608507537 131.22167263829675 63 27 9 0.26745689990017402 23 3556 89 2864 87 2864
667 -15.797506529194612 0.29129076084346417 131.87863144804163 179 165 121 0.39059800942965994 23 3232 89 2868 87 2868
668 -15.008143555550504 1.4111086056503463 131.74126455243891 94 36 23 0.26708989277201883 23 2712 89 2873 87 2873
669 -16.095201327800989 1.3968072769056996 132.3069475233668 124 117 71 0.053226382577860921 23 3242 89 2874 87 2874
670 10.119388742966168 2.2910429498834897 130.54881898304137 90 103 109 0.15468327797275225 23 3247 89 2875 87 2875
671 9.3645975923390274 2.9020388729841904 129.49586414766034 65 88 96 0.06396268703867275 23 3253 89 2882 87 2882
672 -12.773054539609493 3.3172664292764007 132.01661112514373 4 4 6 0.14905525309535883 23 3257 89 2886 87 2886
673 4.622252695977199 9.9785460811681048 132.51201427633993 0 1 1 0.22627879209196114 23 3283 89 2915 87 2915
674 -2.4227405231197712 11.729873074062489 132.01800121211267 9 5 6 0.10219753897945698 23 3289 89 2928 87 2928
675 -5.5219995642307085 12.280138835099985 133.41338196641829 153 143 134 0.25714282506342384 23 3294 89 2931 87 2931
676 -4.7760889603468248 12.477112687852959 132.36251181979532 155 142 134 0.010114292407184009 23 2804 89 2932 87 2932
677 -3.7125683762248269 12.778233802082298 131.80110956213161 158 149 140 0.28850057951187164 23 3297 89 2934 87 2934
678 -3.2104058930332982 13.02799937231576 132.76790119474191 151 141 132 0.22860910260262859 23 3299 89 2936 87 2936
679 -1.0710560115265697 13.854934331246296 133.41669033552495 153 143 134 0.22696797653077613 23 3593 89 2939 87 2939
680 1.4058337783083674 14.13301231580764 133.36501605962616 56 51 47 0.072645499053954579 23 3300 89 2940 87 2940
681 2.0293611239701077 14.316556745885709 133.89313893306146 57 54 49 0.11610086055758 23 3302 89 2941 87 2941
682 5.1014106226922902 14.583855197070013 135.05955413453734 50 51 46 0.022910778122716829 23 3305 89 2942 87 2942
683 1.8392328130548652 14.574621650177598 134.02000950003139 145 138 132 0.15649407533728557 23 3306 89 2945 87 2945
684 2.1672166647369382 14.666018585619259 134.40403662671994 140 133 127 0.059249510108321995 23 2824 89 2946 87 2946
685 -1.5737247365682925 16.644120001699395 135.49523166670934 174 164 162 0.22784770543655194 23 3321 89 2957 87 2957
686 1.3567206131152563 16.739621988985057 135.06698752045006 167 157 155 0.28739080556215774 23 2858 89 2959 87 2959
687 -4.7357987641559083 17.168038082733958 136.7519350614713 188 177 175 0.0188778220732897 23 2867 89 2963 87 2963
688 -7.5907243572573959 17.342886129346432 136.86478390036152 188 178 176 0.37940291891746813 23 3330 89 2964 87 2964
689 -1.3811219628425844 17.643458353329613 136.8561376230584 177 168 164 0.13717255468471232 23 3329 89 2965 87 2965
690 -7.1636018563084241 17.805804773906772 137.0029920560072 161 151 149 0.031329449389974527 23 2877 89 2967 87 2967
691 0.33623084319256125 18.929547673546892 137.28352363106313 205 194 192 0.0038878660276706056 23 3344 89 2972 87 2972
692 0.33623084319256125 18.929547673546892 137.28352363106313 205 194 192 0.0038878660276706056 23 3343 89 2973 87 2973
693 -5.128628314434474 -19.1619149177195 122.37829471180842 96 94 90 0.077283131706217534 23 3354 89 2981 87 2981
694 -5.5965406032837324 -19.095957938258056 122.0920407753064 17 13 11 0.07231721803479256 23 3353 89 2983 87 2983
695 -3.5746657572748459 -19.016069244635275 121.95941353393032 69 55 44 0.071113450118081234 23 3355 89 2984 87 2984
696 -1.7498613266336653 -18.436122861826021 121.84496367726429 56 56 58 0.070412431161772093 23 2939 89 2988 87 2988
697 -2.4685924777493491 -17.710415823789127 121.11723135425719 24 16 12 0.010176170531930625 23 3610 89 2995 87 2995
698 -0.1950464129722326 -17.074410963545123 120.9844540446685 68 59 55 0.34477443155610338 23 3372 89 3000 87 3000
699 -5.2172065074310856 -16.71390620110633 121.99922795847893 131 119 110 0.15691849861231988 23 3373 89 3002 87 3002
700 -6.365616465620298 -16.450919051227377 122.14890981914819 8 8 7 0.15144679062415251 23 3375 89 3005 87 3005
701 -4.5946213707480688 -16.131997193093515 121.47954548206576 103 96 88 0.034662828357523247 23 3378 89 3006 87 3006
702 -8.5534060024687601 -16.132813723893271 123.17008419287477 131 130 126 0.0044172472626384371 23 3379 89 3008 87 3008
703 2.9417501929512029 -15.999749145934445 122.60217436692228 235 237 255 0.39985039964337415 23 3380 89 3009 87 3009
704 -11.125466242825464 -16.147130088230284 124.97931965479222 45 38 10 0.030902355587870745 23 3382 89 3012 87 3012
705 -4.0412751990614364 -15.255566943258216 120.94866322887181 12 14 13 0.19525590458794484 23 3385 89 3016 87 3016
706 -4.0412751990614364 -15.255566943258216 120.94866322887181 12 14 13 0.19525590458794484 23 3386 89 3017 87 3017
707 4.63598468577411 -15.462032674226558 123.79324996561031 243 247 255 0.30244299907597166 23 3388 89 3018 87 3018
708 4.5813679797058127 -14.902892544295142 123.63090790303822 218 220 245 0.1274298833803211 23 3400 89 3021 87 3021
709 0.63511508806451689 -14.516339898759052 121.39311649845067 63 73 96 0.27896916628820717 23 3403 89 3022 87 3022
710 6.8761558070891775 -14.869993211366046 125.34495417622387 140 156 204 0.073441818047918481 23 3404 89 3026 87 3026
711 -6.3012049630470246 -13.819445369854895 121.8279337281359 50 41 32 0.17701175293846041 23 3408 89 3032 87 3032
712 -7.6345224192392909 -13.687906663215697 122.79052104310725 105 104 101 0.0024816065041818555 23 3410 89 3034 87 3034
713 -6.5324775278671403 -13.586125446628888 122.30570060210574 151 142 133 0.30553599001462284 23 3411 89 3035 87 3035
714 -5.9196231667813777 -13.380730642877953 122.03866847788412 7 1 0 0.055145016079755055 23 3412 89 3036 87 3036
715 -6.065754963044891 -12.878644385814496 121.87477245376584 103 94 85 0.092527364100526699 23 3652 89 3040 87 3040
716 -12.078987240988964 -13.101772098922371 125.67261633005621 148 124 102 0.12607648910398583 23 3417 89 3046 87 3046
717 -6.5300707256016288 -12.684324433217521 122.53115933435939 126 120 120 0.13314238073352522 23 3418 89 3048 87 3048
718 -1.2665341173901061 -12.414804662050186 121.37706047793804 17 8 3 0.040888361403066766 23 3421 89 3049 87 3049
719 -12.579792111722078 -12.600974969644909 125.53616219116154 159 142 117 0.022772341317652933 23 3424 89 3050 87 3050
720 -3.2811096323743736 -11.983292316651115 120.9403380009928 147 134 125 0.20331747620515836 23 3425 89 3051 87 3051
721 -11.150714811478132 -12.37941438232609 124.80018835294285 16 5 1 0.12419929642499894 23 3428 89 3052 87 3052
722 0.85741772365205349 -11.908168771146626 121.37482463079201 9 15 6 0.072914302776029186 23 3034 89 3053 87 3053
723 2.561241445553156 -12.016970414840044 122.11128716300531 149 161 186 0.20931446883633545 23 3427 89 3055 87 3055
724 -12.350722692958065 -12.284064082820114 125.8455624611847 49 40 14 0.17891932386698872 23 3430 89 3056 87 3056
725 -4.5784814595892529 -11.824482053684466 121.9831770178665 36 37 10 0.091439446217728634 23 3429 89 3057 87 3057
726 -12.756372100440899 -12.027011086381659 125.96570229672463 43 32 7 0.11772339722248375 23 3434 89 3059 87 3059
727 3.500050823039957 -11.340847685493548 122.42290790639099 181 191 218 0.016962599004785962 23 3435 89 3062 87 3062
728 -9.6050361862434439 -11.286674510679712 123.89582687897213 99 83 68 0.48242716919408907 23 3438 89 3063 87 3063
729 -4.0419518006061361 -10.871851432260726 121.47836226189 124 122 112 0.14770659366843328 23 3440 89 3064 87 3064
730 -11.17120646207322 -11.208063372462371 124.93726156163075 85 75 65 0.13900096604029785 23 3441 89 3068 87 3068
731 -6.6090952017393478 -10.922065868422436 122.46871689616158 16 11 8 0.019550043247688897 23 3442 89 3070 87 3070
732 -12.850585790778709 -10.917534960477887 126.32680970183381 40 28 11 0.089898209219783684 23 3445 89 3072 87 3072
733 5.750870405708727 -10.236919581600542 124.36621731419228 189 196 225 0.055042519781144945 23 3054 89 3075 87 3075
734 -12.690196213064247 -10.362318408834843 126.0769102131347 178 170 153 0.041141014144179665 23 3450 89 3077 87 3077
735 -12.690196213064247 -10.362318408834843 126.0769102131347 178 170 153 0.041141014144179665 23 3451 89 3078 87 3078
736 -4.2932630294589682 -9.1979626760207598 122.30226868780619 24 23 2 0.25150184594326769 23 3673 89 3087 87 3087
737 -12.293936102582951 -8.9694171197194201 126.0435222758056 39 32 17 0.15427083990476823 23 3464 89 3095 87 3095
738 3.047475944576961 -8.5993329662502216 122.18726520626947 36 43 27 1.2830637654018118 23 3085 89 3096 87 3096
739 0.29793142645634818 -8.2062779547993294 121.96264699453684 16 19 0 0.0054141012142191955 23 3465 89 3100 87 3100
740 -5.5449840350847204 -8.2067382802360491 122.47183371233595 96 86 76 0.44873139042044058 23 3467 89 3101 87 3101
741 -5.5449840350847204 -8.2067382802360491 122.47183371233595 96 86 76 0.44873139042044058 23 3468 89 3102 87 3102
742 2.0590374564205636 -7.6966778310440249 122.53690085453702 35 38 17 0.10794115010574505 23 3098 89 3104 87 3104
743 -15.223275517274507 -8.2733923807340322 128.08173097136947 50 56 10 0.22078205784487678 23 3473 89 3105 87 3105
744 8.4784333197176043 -7.2562178003900044 125.38331544190143 158 173 201 0.16011773989665998 23 3476 89 3110 87 3110
745 -2.1186328055271106 -6.9398489956800153 122.32337323506555 15 16 3 0.12147798384496951 23 3479 89 3111 87 3111
746 -0.95124813242108797 -6.8574777324780367 121.66316317998378 110 110 84 0.11597244576816373 23 3117 89 3112 87 3112
747 -14.480835825212054 -7.4989305385719476 127.83408958604034 44 48 15 0.079980725895516108 23 3695 89 3113 87 3113
748 5.9203099929947083 -6.7766680985306476 124.06357367360491 7 10 5 0.17003899275800757 23 3485 89 3115 87 3115
749 -12.776986716902359 -7.1024298801692849 126.66481254808284 151 146 127 0.040022594824012589 23 3486 89 3117 87 3117
750 -12.776986716902359 -7.1024298801692849 126.66481254808284 151 146 127 0.040022594824012589 23 3487 89 3118 87 3118
751 -11.712189260850137 -6.9705327741386975 125.46834491792416 142 141 130 0.15672059724498302 23 3488 89 3119 87 3119
752 0.15180449587162465 -5.6780642653876274 122.13090075284612 44 39 44 0.091383044689074447 23 3496 89 3125 87 3125
753 -15.7278088792901 -6.2031916610974287 129.03766776909211 199 198 194 0.028355524483256598 23 3144 89 3127 87 3127
754 -10.205856635801165 -5.8469457034012384 126.41709003219393 167 150 142 0.064289535020375863 23 3499 89 3128 87 3128
755 -13.661717193608595 -5.7196967085795567 127.59513307527418 35 32 13 0.11618141790440624 23 3504 89 3133 87 3133
756 -13.029667611907289 -5.4856746385231689 127.18637704303605 36 35 4 0.09594561888895492 23 3505 89 3136 87 3136
757 -13.853985220078119 -5.3108188261868543 128.15834690403904 175 172 168 0.15956451764966442 23 3507 89 3137 87 3137
758 -0.33650025645626203 -4.4905280507197931 122.1972674142978 14 26 38 0.38258410998396292 23 3161 89 3139 87 3139
759 -15.377200187446688 -5.1185234922074496 129.43427857182496 155 152 145 0.024601086666257682 23 3510 89 3141 87 3141
760 -5.8305516591684521 -4.4179747874986157 124.02954989880615 0 13 13 0.039068243884404073 23 3513 89 3143 87 3143
761 -5.8305516591684521 -4.4179747874986157 124.02954989880615 0 13 13 0.039068243884404073 23 3514 89 3144 87 3144
762 11.092406477891437 -4.5525476625226302 128.30534248531976 23 39 65 0.055196453911200261 23 3515 89 3145 87 3145
763 0.70978357742615117 -3.8678445743737311 123.52925352124511 66 84 96 0.13452704444341107 23 3169 89 3149 87 3149
764 7.9603381852891726 -3.9164641466837367 125.95197368703654 31 34 15 0.063701610104458253 23 3517 89 3150 87 3150
765 0.79184068869094171 -3.2818575942687711 122.98396161296689 36 56 65 0.0558449391776712 23 3518 89 3155 87 3155
766 1.0362489443709111 -2.9929691187610885 123.3304377515425 97 117 126 0.028600330849706146 23 3521 89 3157 87 3157
767 -0.19829129396836234 -2.9493838319455041 123.63852848333212 31 48 55 0.21887896677780586 23 3187 89 3159 87 3159
768 7.0008369094976857 -2.6340661847975397 126.47813241158973 20 7 2 0.12494163452510643 23 3524 89 3161 87 3161
769 -6.6940546671454184 -2.6526296433071308 124.81314873450826 0 25 34 0.04400857669495984 23 3528 89 3163 87 3163
770 -3.835752960053965 -2.5058379584532684 123.59934153991203 17 29 35 0.015450696551048143 23 3529 89 3165 87 3165
771 -7.7402438630424095 -1.9154053303117555 125.74412073853101 18 34 48 0.11943562248416362 23 3537 89 3167 87 3167
772 -15.565261048906894 -1.7506706977594519 130.87520273722481 190 176 163 0.22743783571611842 23 3218 89 3170 87 3170
773 -15.305466910711178 -1.7298943756457223 130.99311479151484 80 5 0 0.095919997491952083 23 3545 89 3171 87 3171
774 4.1115420635997717 -0.8678635874860765 126.09722931031355 123 78 111 0.18109004859463171 23 3549 89 3173 87 3173
775 -15.249799505360492 1.1483039687476735 131.73317800968877 131 107 83 0.18477444936664167 23 3762 89 3185 87 3185
776 -12.816523548032299 1.9168823058688838 130.96387128492859 94 95 97 0.069674464947630785 23 3560 89 3190 87 3190
777 10.670980720255116 3.0034358642006032 131.63887995780337 127 129 127 0.13004418907461404 23 3562 89 3191 87 3191
778 -12.317259045618423 3.7313840867142791 131.0311803118762 1 1 3 0.0658882647878168 23 3565 89 3194 87 3194
779 -13.354333998116084 5.3467567013209898 133.23547911019295 1 3 8 0.18318976895447839 23 3770 89 3201 87 3201
780 -12.560392868363246 7.5156558649593537 128.84254052328512 62 61 59 0.85341244666018701 23 3576 89 3209 87 3209
781 4.8092167706210871 8.2137820742239409 130.89613922562239 1 1 1 0.061407146340910525 23 3575 89 3210 87 3210
782 0.97159402685104634 9.2307586115690317 130.16999347379499 2 2 4 0.065169543648364969 23 3579 89 3216 87 3216
783 2.5050403157682353 10.768043898552349 132.0707644926521 175 180 186 0.05815470449310569 23 3582 89 3224 87 3224
784 2.5050403157682353 10.768043898552349 132.0707644926521 175 180 186 0.05815470449310569 23 3583 89 3225 87 3225
785 -2.8490782869453244 11.532608555653297 131.66774606725028 1 0 0 0.082211643543924115 23 3585 89 3229 87 3229
786 -1.5920226273816078 12.388699637482357 131.81890430271969 50 42 40 0.039809740414860594 23 3295 89 3233 87 3233
787 6.8525940174968234 15.728478360150659 137.13462923967577 152 145 143 0.090629365183390889 23 3599 89 3245 87 3245
788 -1.3086569734915836 -18.166632225923085 121.14805141121978 23 19 20 0.36482718732991465 23 3359 89 3257 87 3257
789 -3.8982069214879482 -18.03738464917344 122.49991483581944 90 88 91 0.58268002204358771 23 3609 89 3259 87 3259
790 -9.59094876628299 -17.865827497306118 124.11349142195115 204 187 177 0.085765629964593401 23 3616 89 3260 87 3260
791 -6.5821669980243076 -17.560882904349643 122.21803351744038 4 8 5 0.069709591994781883 23 3617 89 3262 87 3262
792 -8.1497772623789579 -17.49608766426492 123.189259019571 129 123 120 0.17074848386328653 23 3621 89 3265 87 3265
793 -1.0470388971441273 -17.222755593431806 121.00715427280802 42 30 32 0.2467875151255132 23 3620 89 3266 87 3266
794 -6.067246048277557 -17.171009460452435 121.73718003364831 19 21 17 0.0031607093352756608 23 3622 89 3270 87 3270
795 -7.3441055357679774 -16.443992139993249 122.88451027985867 46 39 33 0.16477615526364039 23 3629 89 3275 87 3275
796 -7.3441055357679774 -16.443992139993249 122.88451027985867 46 39 33 0.16477615526364039 23 3628 89 3276 87 3276
797 -9.2208580531993309 -15.962152350455813 123.6752429827053 167 159 149 0.037349369764132327 23 3632 89 3279 87 3279
798 2.5028149077497535 -15.838231876431673 122.72088129052571 212 213 235 0.33202371094479832 23 3631 89 3281 87 3281
799 -6.4901997404191576 -15.448375469326018 122.02558726784085 51 35 27 0.085543880371794223 23 3384 89 3283 87 3283
800 -0.51933655846832405 -14.93898921036058 120.63070660813369 147 137 125 0.52150438980000691 23 3395 89 3284 87 3284
801 5.0004072499040424 -14.901622689278522 124.08663072334322 251 253 255 0.2877809822897836 23 3636 89 3287 87 3287
802 -0.51988598569375144 -14.183702655105431 120.83641882560487 138 128 119 0.41779903385310496 23 3640 89 3290 87 3290
803 -4.636708031109869 -13.659127566779906 121.39153541457699 164 157 145 0.069118734008545277 23 3645 89 3292 87 3292
804 1.4255224497871732 -13.230129899547578 121.35472459411103 206 217 239 0.029424687185269069 23 3648 89 3295 87 3295
805 -4.8909146460892297 -13.150657420150653 121.64859309459028 12 9 4 0.0080255190467304841 23 3649 89 3297 87 3297
806 -1.0757886653425892 -12.934342276587303 121.12941532433243 142 124 111 0.068635813478183025 23 3651 89 3299 87 3299
807 -11.393629076464608 -13.137807196367726 124.61423119137663 148 126 105 0.091066331397882158 23 3653 89 3300 87 3300
808 -9.9823597617941395 -12.629768809236182 123.90706260187599 141 131 122 0.12244385117125928 23 3656 89 3303 87 3303
809 -7.1847944190911299 -11.76832410705927 122.44271596828673 125 120 116 0.014641302816765803 23 3658 89 3306 87 3306
810 -8.8870872235905249 -11.464454102271235 123.27612749322668 169 156 143 0.15382865055027389 23 3436 89 3307 87 3307
811 3.5104504363583375 -10.61853798080077 122.50057947539878 21 32 28 0.11977951107357365 23 3661 89 3312 87 3312
812 2.1453976966647796 -10.503338261363863 122.22765243580785 30 41 27 0.054721931401302659 23 3665 89 3313 87 3313
813 -3.6024707020383189 -10.152160916892827 121.65346860809561 37 40 17 0.061879899570714318 23 3669 89 3316 87 3316
814 4.1652829233208672 -9.6418565531979485 122.29689895491745 18 23 27 0.016842645755669069 23 3454 89 3322 87 3322
815 -12.249762919068813 -9.8502684742003197 125.41606488844793 22 26 3 0.30652949725050355 23 3671 89 3326 87 3326
816 -14.066284694385386 -9.7023698116648234 127.11677651996965 168 161 151 0.01710376853336083 23 3675 89 3328 87 3328
817 -9.518806162229728 -9.317450810050758 124.59175979151948 130 126 117 0.053673753341373261 23 3676 89 3329 87 3329
818 -4.3043740049141137 -8.4257660481945695 122.3769495405254 162 153 144 0.192187844137408 23 3681 89 3332 87 3332
819 -12.70092290569508 -8.5598356438679399 126.21797697421002 169 161 142 0.01692659654312623 23 3837 89 3336 87 3336
820 -12.70092290569508 -8.5598356438679399 126.21797697421002 169 161 142 0.01692659654312623 23 3838 89 3337 87 3337
821 -0.082227722206056522 -7.9985970860726789 121.94137689986165 54 61 9 0.25545291820910593 23 3684 89 3338 87 3338
822 -10.307868752474706 -8.2347093086300873 124.79077443812324 58 55 49 0.37015346182248027 23 3685 89 3340 87 3340
823 -10.307868752474706 -8.2347093086300873 124.79077443812324 58 55 49 0.37015346182248027 23 3686 89 3341 87 3341
824 4.4469122880259802 -7.5030889363161366 122.93512066993091 47 51 35 0.15056910037348328 23 3689 89 3345 87 3345
825 -8.0744424479304708 -7.5828804043918092 123.70999331831385 125 121 118 0.18157902746722829 23 3692 89 3346 87 3346
826 3.3434852660054193 -7.2445395352095385 122.54655355626718 4 5 0 0.091091320949228741 23 3693 89 3348 87 3348
827 6.5270516825016101 -7.2478279328005701 124.07290672696689 21 30 29 0.36668445501960689 23 3694 89 3350 87 3350
828 4.8663261044283912 -6.8635298943600471 123.2785210910144 39 42 23 0.17502960532085113 23 3848 89 3352 87 3352
829 -3.7716149212958929 -6.7004768144776143 122.79833526501562 158 151 145 0.032975177883334233 23 3696 89 3353 87 3353
830 -3.7716149212958929 -6.7004768144776143 122.79833526501562 158 151 145 0.032975177883334233 23 3697 89 3354 87 3354
831 -4.3494174879683403 -6.5912715566260962 122.01721146684405 129 126 115 0.011445214082822753 23 3489 89 3355 87 3355
832 -7.0447476220951177 -6.5991121744766348 124.30974582116794 74 75 61 0.28196454138765331 23 3702 89 3358 87 3358
833 -6.3351937353440038 -6.5632524004595707 123.37529081306647 125 125 115 0.17218322047911527 23 3491 89 3359 87 3359
834 -7.6453250919614781 -6.4890562562777214 124.13872822651275 103 104 92 0.093902208968160553 23 3704 89 3360 87 3360
835 -13.464935068847023 -6.5063680170451006 127.56722160593404 27 26 8 0.1248833240867623 23 3706 89 3362 87 3362
836 -6.2016200170661326 -4.6079219900680366 124.58586811044796 5 14 17 0.20018931209772672 23 3714 89 3371 87 3371
837 -3.107396784241037 -4.3783333486822373 123.63087731644552 155 2 44 0.69378837616915023 23 3511 89 3373 87 3373
838 7.2762742040832498 -4.2286669787849558 125.13730177480487 37 40 19 0.45962332867902367 23 3516 89 3374 87 3374
839 9.5244299636026319 -4.3046675834700423 126.8094570664999 11 20 16 0.2173413456362869 23 3863 89 3375 87 3375
840 1.8407111036595141 -3.880182912735842 123.30192162811726 99 125 132 0.28556344584115162 23 3716 89 3376 87 3376
841 -6.0094738914248351 -3.9532402033362914 124.25883330879914 68 98 100 0.096185438506763685 23 3717 89 3377 87 3377
842 11.074239526430286 -3.9065211697990398 128.11727434792985 37 148 235 0.12912618444802698 23 3720 89 3379 87 3379
843 11.074239526430286 -3.9065211697990398 128.11727434792985 37 148 235 0.12912618444802698 23 3721 89 3380 87 3380
844 0.64387002430655405 -3.2915647974831757 123.42530133600287 35 55 64 0.1209990648288346 23 3724 89 3383 87 3383
845 -13.270069926097817 -3.8213140512235539 128.80731290350479 137 2 13 0.069783959481789504 23 3869 89 3384 87 3384
846 9.1521778203442885 -3.3967150872575615 126.68490785125806 32 35 14 0.07610330073599679 23 3725 89 3385 87 3385
847 -7.0478402208103041 -3.3531783462040012 125.02812068565675 40 69 73 0.030401228019497285 23 3519 89 3386 87 3386
848 -7.0478402208103041 -3.3531783462040012 125.02812068565675 40 69 73 0.030401228019497285 23 3520 89 3387 87 3387
849 6.3055962433835768 -3.2300673386492464 125.89438818180165 8 6 0 0.039237509275681391 23 3729 89 3388 87 3388
850 -12.540597847564404 -3.549832207609644 127.82888537580578 16 12 15 0.59720592100956871 23 3730 89 3389 87 3389
851 4.4443560621308373 -2.7850040132092859 123.34467738589001 83 104 112 0.069278082932842919 23 3732 89 3390 87 3390
852 -15.645255762960463 -3.3121910292425905 130.03405395918492 161 154 136 0.087916072308657126 23 3733 89 3393 87 3393
853 -15.645255762960463 -3.3121910292425905 130.03405395918492 161 154 136 0.087916072308657126 23 3734 89 3394 87 3394
854 -0.84827120167712367 -2.3639964793706367 124.71156930428303 49 58 73 0.17061084685066666 23 3738 89 3397 87 3397
855 10.096915469068666 -2.527458674768464 128.01066038801883 32 35 16 0.73620765303751157 23 3736 89 3399 87 3399
856 9.2813439930180959 -2.1400769763415606 127.50334211271067 38 43 13 0.35709102633733086 23 3739 89 3400 87 3400
857 3.0328694949090385 -1.7387427607901322 124.82625731492512 76 95 105 0.04820848845589748 23 3877 89 3405 87 3405
858 -5.5791968429567822 -1.2555142954669716 125.05707851075049 67 5 7 0.11220410213433622 23 3748 89 3410 87 3410
859 3.4467566937703387 -0.87735943873305322 126.84591125373797 96 84 108 0.046830446312980216 23 3749 89 3411 87 3411
860 -10.414619028188795 -0.45768996972154719 128.1897830556224 41 4 0 0.17762754294731073 23 3754 89 3414 87 3414
861 -2.7488149356561102 0.31530670708306668 125.45438959970252 146 0 19 0.12069412066837511 23 3757 89 3418 87 3418
862 -13.398880925087632 2.0593367574975567 131.15022517245626 0 4 5 0.20251653147626417 23 3766 89 3424 87 3424
863 -14.859930372414116 3.312956092866326 132.77076757266175 98 75 59 0.076044470569227293 23 3767 89 3428 87 3428
864 -13.960489494128641 4.1698302261946107 132.96456464527009 59 63 66 0.20361495727173362 23 3768 89 3429 87 3429
865 -14.330068591977996 4.4400649715066285 133.40003733493063 25 14 10 0.034377154996441069 23 3769 89 3430 87 3430
866 1.4252478718309209 6.9943668672030608 128.90832969314624 0 0 2 0.062685492833551057 23 3771 89 3434 87 3434
867 5.880570209507205 7.9829382084288385 131.91949147383477 1 1 1 0.56020174661357447 23 3903 89 3435 87 3435
868 1.0754673167249305 8.365405274443491 129.82577706368721 0 0 1 0.030856579076929017 23 3772 89 3437 87 3437
869 1.9791632278597258 9.4323083012681668 130.16030788068022 1 1 1 0.11836352612097496 23 3774 89 3439 87 3439
870 6.0005578063155554 9.9034581488379061 131.88968525269695 0 0 2 0.46107244928369973 23 3581 89 3440 87 3440
871 3.3918582027358726 11.370442420443995 132.60736283310428 1 1 1 0.27351835228629645 23 3777 89 3442 87 3442
872 -6.1909382237477395 12.023216806056286 133.0853173272566 157 145 136 0.082852484893975162 23 3778 89 3443 87 3443
873 4.538969051968051 14.847374281265784 134.78267615856961 61 60 56 0.038861825665575417 23 3782 89 3447 87 3447
874 -4.1617452427465915 16.56325083374167 135.91238027414371 166 157 150 0.13650306737049817 23 3786 89 3450 87 3450
875 -4.526957181338207 17.226571938548595 136.04722075835753 191 180 178 0.23550332773164942 23 3787 89 3451 87 3451
876 4.2200712684877155 19.248529409316564 138.89775513360274 116 110 110 0.16586559245979163 23 3788 89 3454 87 3454
877 4.2200712684877155 19.248529409316564 138.89775513360274 116 110 110 0.16586559245979163 23 3789 89 3455 87 3455
878 -7.6311637691770482 19.326152859074121 139.28904352776269 173 164 162 0.22633372062673321 23 3790 89 3457 87 3457
879 -5.7712747658021861 -17.83942381136508 122.10001114239283 162 158 149 0.048550372266116436 23 3797 89 3463 87 3463
880 -1.2153123236368772 -16.180909122714255 121.14157448222177 46 30 29 0.35518791843955905 23 3800 89 3470 87 3470
881 -8.7570649258929691 -14.948615863928204 123.05390951377109 155 147 136 0.16795782290482411 23 3807 89 3477 87 3477
882 -0.042383902741009984 -14.445724111486635 121.35808091319321 36 40 32 0.10867664371797174 23 3810 89 3478 87 3478
883 -3.3546131418685299 -14.054969585795021 120.86498878687685 120 107 99 0.097972996338639276 23 3811 89 3480 87 3480
884 -8.356725697909539 -13.641612518268328 123.03006035561913 159 147 134 0.10254982880028861 23 3813 89 3484 87 3484
885 -2.1988128816868699 -13.226390228566371 120.8115859214969 20 16 11 0.039849552624814683 23 3814 89 3485 87 3485
886 -12.485353328575421 -13.325101699343438 126.01811653639795 79 58 37 0.048725700841873588 23 3816 89 3487 87 3487
887 -7.0956332587217386 -12.470384938275169 122.07918871857359 5 4 3 0.11618446646107934 23 3818 89 3488 87 3488
888 -7.0956332587217386 -12.470384938275169 122.07918871857359 5 4 3 0.11618446646107934 23 3819 89 3489 87 3489
889 -11.548583883746874 -12.028992411285468 124.81782580317859 135 117 97 0.2841516070015821 23 3824 89 3492 87 3492
890 0.39247320209935549 -11.645581293909146 121.46881781205971 37 42 19 0.2015578106959954 23 3823 89 3493 87 3493
891 -12.513160013103219 -10.923864395827946 126.23607612334187 36 27 13 0.067334298288633146 23 3825 89 3496 87 3496
892 1.685935685532276 -10.281208642464438 121.74060526964257 1 6 7 0.2261655880673569 23 3826 89 3497 87 3497
893 1.685935685532276 -10.281208642464438 121.74060526964257 1 6 7 0.2261655880673569 23 3827 89 3498 87 3498
894 -4.0716630712991071 -9.9789280177057584 121.39867494496922 98 100 79 0.043385068227178462 23 3828 89 3499 87 3499
895 -1.5718318040115422 -9.7800679671455448 121.07724060151847 40 25 7 0.40625703820612458 23 3670 89 3500 87 3500
896 -0.18547993066334501 -8.9972564041652436 122.02113839790115 50 57 15 0.42601052480365659 23 3832 89 3501 87 3501
897 -14.966594432499527 -8.8506755577896907 127.92426352728836 157 155 142 0.038220994695176987 23 3835 89 3504 87 3504
898 -14.966594432499527 -8.8506755577896907 127.92426352728836 157 155 142 0.038220994695176987 23 3836 89 3505 87 3505
899 -13.462707806557978 -8.3997520123944902 126.97061853927372 163 159 144 0.007119496850013095 23 3950 89 3508 87 3508
900 -13.462707806557978 -8.3997520123944902 126.97061853927372 163 159 144 0.007119496850013095 23 3951 89 3509 87 3509
901 -12.893363329886739 -7.7817811501808052 126.52769313854417 26 26 1 0.060607093351235874 23 3845 89 3512 87 3512
902 -12.893363329886739 -7.7817811501808052 126.52769313854417 26 26 1 0.060607093351235874 23 3846 89 3513 87 3513
903 -2.5908778280517888 -6.8397292620034413 122.55572993456363 151 154 147 0.055989539138663467 23 3847 89 3515 87 3515
904 7.3610846861141672 -6.515245079506923 124.87131910798691 23 28 24 0.022314200705364912 23 3853 89 3518 87 3518
905 -2.5238629106512853 -5.9818721199549421 122.68977743891386 135 5 33 0.053085396249537176 23 3856 89 3520 87 3520
906 2.5552761069723871 -4.5573668250349639 124.80061023046453 68 86 98 0.089722705127989369 23 3860 89 3526 87 3526
907 3.0573474781260255 -4.2051600462408834 123.38422431298025 85 103 115 0.1506585588827444 23 3862 89 3528 87 3528
908 10.33751354264051 -4.3208070355956902 126.60205618951082 26 139 204 0.1366647236321589 23 3864 89 3529 87 3529
909 -6.5892533493936183 -4.1441041951618312 124.68556235623684 62 90 97 0.026396593942203062 23 3865 89 3530 87 3530
910 -14.671849028686763 -4.0703018547793359 129.2695418261942 169 170 165 0.19640832776253458 23 3867 89 3532 87 3532
911 10.534948744264828 -3.6157806274485487 127.97011154325401 13 19 5 0.36124336901525772 23 3868 89 3533 87 3533
912 -0.67660143046131838 -3.120507355791025 124.10745049246025 18 32 41 0.43491762295782194 23 3870 89 3534 87 3534
913 -1.4507444714718636 -0.91310662777661877 123.92011508509319 9 14 10 0.014044541513383963 23 3883 89 3541 87 3541
914 7.0856240624950448 -0.95826791990895877 127.24600264630311 166 42 76 0.15568107918814153 23 3884 89 3542 87 3542
915 7.0856240624950448 -0.95826791990895877 127.24600264630311 166 42 76 0.15568107918814153 23 3885 89 3543 87 3543
916 -11.822134070657377 -0.7383775052282725 128.63079323215351 33 0 0 0.37249338606455229 23 3887 89 3544 87 3544
917 -15.926528578798653 0.18027433767048934 131.81832552608415 173 164 115 0.19738397156766449 23 3888 89 3547 87 3547
918 -1.1617704483788744 1.4897913617437561 125.49103428010679 174 0 28 0.095385064047200707 23 3891 89 3550 87 3550
919 9.022700130639814 2.1724945909439128 130.00435197919461 158 177 184 0.0092642396140901872 23 3763 89 3554 87 3554
920 9.022700130639814 2.1724945909439128 130.00435197919461 158 177 184 0.0092642396140901872 23 3764 89 3555 87 3555
921 -12.447833756124197 4.6302246890956118 131.93462454383322 1 2 1 0.021302740926405397 23 3898 89 3559 87 3559
922 5.0459784243438 6.4550849287055012 129.66791130837518 1 1 1 0.0053356732971118316 23 3900 89 3561 87 3561
923 1.4254524904702777 7.0586978209452216 128.95714871082438 0 0 2 0.08397655935105286 23 3901 89 3563 87 3563
924 5.9131231632496526 9.0288781805753437 131.84736950848261 2 2 4 0.012584653459305581 23 3906 89 3566 87 3566
925 5.9131231632496526 9.0288781805753437 131.84736950848261 2 2 4 0.012584653459305581 23 3905 89 3567 87 3567
926 -7.9397680049831969 10.579724885082403 132.91623342473954 57 48 43 0.071960167538637015 23 3908 89 3570 87 3570
927 5.331638655163661 11.567661661105056 133.1862920741591 1 2 1 0.13836419585965073 23 3909 89 3574 87 3574
928 -10.149016454601794 -17.994505622288745 124.50899169517938 118 113 110 0.12341045067189547 23 3921 89 3582 87 3582
929 -10.40614902939353 -16.535430781441807 124.41185314554268 123 120 115 0.081254844332915827 23 3924 89 3585 87 3585
930 -7.7130562379704246 -15.425432021551112 122.69739440774143 122 108 96 0.066357572000605006 23 3930 89 3588 87 3588
931 -10.846689966067578 -15.523300379114575 124.74744347526392 41 46 10 0.067730302657647221 23 3932 89 3591 87 3591
932 -10.846689966067578 -15.523300379114575 124.74744347526392 41 46 10 0.067730302657647221 23 3931 89 3592 87 3592
933 -7.8160521018004943 -13.009849551489753 122.93379169476009 4 1 3 0.046125498203745931 23 3935 89 3599 87 3599
934 -4.2133166278691681 -12.582575051587078 121.48436385557562 133 125 112 0.022887960054077516 23 3936 89 3600 87 3600
935 -13.62402821758436 -12.174354192085893 126.37649016948389 115 95 71 0.0099159749576671966 23 3937 89 3602 87 3602
936 -2.2182204724510894 -9.4869578521037887 121.64020603970742 80 74 60 0.15188528158621564 23 3945 89 3609 87 3609
937 4.8721052357969148 -8.657283077909689 123.34944550803938 31 34 27 0.31917355960592853 23 3947 89 3612 87 3612
938 1.6651638357714342 -7.6768686072872026 122.19798499133712 2 3 0 0.062301434946156704 23 3840 89 3617 87 3617
939 1.6651638357714342 -7.6768686072872026 122.19798499133712 2 3 0 0.062301434946156704 23 3841 89 3618 87 3618
940 2.2927264328238879 -7.2857247722303464 122.4760243021251 26 30 3 0.13258846707074198 23 3952 89 3619 87 3619
941 4.4420274019803054 -6.4525445821874454 123.6793256180969 7 8 0 0.48033470132313677 23 3850 89 3623 87 3623
942 -8.7329508020653961 -6.4801736024992076 124.46141025286937 147 143 138 0.062152071503591394 23 4022 89 3624 87 3624
943 -5.6141134664866774 -5.0438962848815603 123.48382134794745 81 90 85 0.010778777617715335 23 3963 89 3625 87 3625
944 -5.2095997332486981 -4.3634925177966553 123.55362331267686 3 9 8 0.080229551982873196 23 3966 89 3626 87 3626
945 -12.861087017817248 -4.6836819449418412 126.37112487807087 133 131 114 0.43339738002394496 23 3715 89 3627 87 3627
946 -5.0975071198733639 -3.3909108645498405 124.33762499527944 80 118 121 0.024200793191196047 23 3972 89 3632 87 3632
947 0.078234885263691697 -3.3201839126619626 123.26690775037754 81 115 116 0.16978996292641757 23 3973 89 3633 87 3633
948 1.6386171496110298 -3.0795845006377234 123.32073108515452 39 58 65 0.45498119218866312 23 3974 89 3634 87 3634
949 7.3939746258225272 -2.5991185044272904 126.26621816178034 5 11 3 0.28070828673236986 23 4034 89 3635 87 3635
950 6.5365982700176026 -2.320154935970093 125.33814933949625 190 186 207 0.53698299131449889 23 3980 89 3636 87 3636
951 -0.24424752565118099 -2.2479118483698057 124.97127365316825 28 40 52 0.71682522132911464 23 3979 89 3637 87 3637
952 -2.2693757591635739 -1.0919891598610052 125.35377548415715 36 47 48 0.25770912857393019 23 3986 89 3642 87 3642
953 -3.1277596220194206 -0.40871240081532845 124.93879451620823 18 1 2 0.046892229549196973 23 3988 89 3643 87 3643
954 -13.392827663720055 3.5002696195116663 131.95247414971934 5 5 7 0.012196918988970441 23 3993 89 3647 87 3647
955 -14.400902893772047 4.0316436875669632 133.27045717876115 43 6 5 0.052128238614082063 23 3994 89 3649 87 3649
956 4.4588169032748324 12.086167731864109 133.60563698002048 0 0 0 0.013882065471449731 23 4002 89 3657 87 3657
