# 3D point list with one line of data per point:
#   POINT3D_ID, X, Y, Z, R, G, B, ERROR, TRACK[] as (IMAGE_ID, POINT2D_IDX)
# Number of points: 283, mean track length: 2
1 9.0774610945920848 -4.3311941351443499 33.304957702620904 201 207 205 0.37914719784129963 242 15 186 100
2 3.8729931878506125 -3.7071976912019888 30.712078579938858 21 19 20 0.085606420565426375 242 13 186 183
3 9.474972019486426 -4.0454096751632793 33.391523971632502 201 207 207 0.1319104525009889 242 30 186 184
4 3.8339278717909364 -3.6689293377147232 30.759685144160201 79 75 75 0.010094471628558952 242 796 186 197
5 3.6594766205891736 -3.4520336810031336 30.718180841148222 48 38 29 0.18764294293512035 242 28 186 243
6 3.803368573812492 -3.248768236173218 30.885866475223398 111 101 92 0.17852760095533476 242 41 186 302
7 4.9604723692022628 -3.280123345861568 31.653049936251087 24 24 26 0.069111318829127161 242 45 186 311
8 4.2450216862543719 -3.1208084921934978 31.28262509115245 115 110 107 0.088349754344331149 242 54 186 356
9 3.3336566262517158 -2.9916718480527233 30.604870080317582 55 44 40 0.17824663711362804 242 55 186 369
10 3.3934531595299822 -2.9502031204618544 30.715532088619966 139 126 120 0.026124363855448161 242 58 186 389
11 3.4350243295217679 -2.832266316858064 30.795926979058546 124 109 102 0.37922574112730689 242 69 186 431
12 3.4350243295217679 -2.832266316858064 30.795926979058546 124 109 102 0.37922574112730689 242 68 186 432
13 4.9139709515473164 -2.9199040916637937 31.795022829126609 134 130 127 0.092059900705537059 242 81 186 433
14 4.8402962296288177 -2.8779683993271701 31.756874994803702 45 37 34 0.24537444051215423 242 88 186 437
15 4.8437545317120794 -2.8146005643453056 31.716805832862896 141 134 126 0.053618518321227507 242 100 186 456
16 4.6193169670349832 -2.7850685718002524 31.62628312061182 169 159 147 0.11317838792542535 242 103 186 468
17 5.292410433345732 -2.7920583134202337 32.005366315947917 43 41 44 0.28258404040990065 242 108 186 476
18 3.5331467019611127 -2.6629575173292603 30.889198475546991 128 112 99 0.17805407049748953 242 855 186 484
19 3.6514645231890794 -2.6853699451946484 31.001988880250835 73 57 44 0.26330696310122026 242 101 186 485
20 5.8458751874053929 -2.7059672596029629 32.405007831844884 94 94 92 0.15732818006128721 242 865 186 511
21 4.236885127897418 -2.6271763215527102 31.478792199632924 132 127 124 0.16623260493839939 242 114 186 513
22 4.9003946252328667 -2.6063591001502 31.850503588299713 15 14 12 0.2801878782169358 242 121 186 532
23 5.9168680202163042 -2.6477414814806548 32.47996082842139 100 100 100 0.21931149164175354 242 871 186 534
24 4.261261312763005 -2.3228449214956268 31.487804406273167 82 82 89 0.14367062509371062 242 141 186 600
25 5.3428469538592873 -2.054721480228018 32.192128116670332 88 87 91 0.018466840783681753 242 926 186 696
26 4.0532976168811761 -1.8815406826568837 31.495442167177146 34 34 36 0.13420630757842394 242 931 186 725
27 5.8868086609735641 -1.909000519590214 32.56580324458983 106 105 110 0.57829877463161361 242 205 186 733
28 7.959866007023674 -1.8193054949847691 33.07660924525041 99 100 102 0.73682631236215368 242 224 186 764
29 4.175547733129723 -1.6792736676179723 31.665841457774473 23 24 16 0.044877857866316095 242 946 186 777
30 8.0999591591980007 -1.7449907928677713 33.089679592536974 12 14 13 0.55036011253637307 242 230 186 790
31 4.6424586110118504 -1.5613457514944966 32.04757884863443 15 16 21 0.33767484792976865 242 237 186 812
32 8.1979024654265036 -1.5700150550237877 33.013886564443709 108 108 110 0.32560563924226754 242 246 186 831
33 6.4740666047229629 -1.4913548123622649 32.644048755500151 74 73 78 0.028870803891697848 242 255 186 851
34 5.0805662850111357 -1.4397205797032169 32.223900446015712 38 38 41 0.13380330086692882 242 257 186 860
35 6.3563883880804335 -1.2249662738690303 32.729870014287819 39 43 46 0.60965217939371974 242 979 186 944
36 4.9508495444694409 -1.1457374743531088 32.161275686565361 92 89 80 0.43513967845062274 242 311 186 957
37 3.4420942471197047 -1.0457138001303325 31.019367279182227 73 70 52 0.064928629807805727 242 324 186 979
38 5.7974417361555695 -1.090749572721103 32.785772802394554 35 34 39 0.065516401494320642 242 325 186 984
39 5.3986515158413706 -0.9989058900518486 32.513144307111588 72 72 72 0.18719037028878097 242 340 186 1008
40 8.6182859762260051 -1.0359944302698101 33.231652489323587 27 27 27 0.14579695609007781 242 334 186 1010
41 5.4193863258761592 -0.82990186713406411 32.604359675770986 99 102 76 0.1856462282440165 242 367 186 1063
42 7.9343830361433847 -0.82760376698991345 33.390302914439907 82 86 72 0.12737569831923809 242 368 186 1070
43 5.8902952445276915 -0.74561926921342081 32.824337207304225 52 55 46 0.13771396427513627 242 378 186 1092
44 4.4392508916295306 -0.60913214046823083 31.808223109164679 110 107 92 0.12764501660823302 242 396 186 1132
45 4.4392508916295306 -0.60913214046823083 31.808223109164679 110 107 92 0.12764501660823302 242 395 186 1133
46 5.7448270256680614 -0.62151685301068049 32.803814726739461 112 113 91 0.13678064862058664 242 393 186 1134
47 5.7448270256680614 -0.62151685301068049 32.803814726739461 112 113 91 0.13678064862058664 242 394 186 1135
48 3.5055160076029002 -0.5553785986447074 31.025005152518695 108 107 88 0.15397903123872309 242 1054 186 1140
49 7.75441389699869 -0.49715516657514636 33.423984523486133 68 72 49 0.311135385004215 242 1057 186 1178
50 5.1186998903012757 -0.43221951087360067 32.381385172008699 123 117 101 0.18936065572071087 242 1063 186 1189
51 4.8182420262098908 -0.40192087751061517 32.148085578602554 105 101 72 0.53889368741249122 242 419 186 1208
52 6.9233497269064728 -0.39730379083112666 33.367116916817636 69 64 47 0.23769585260595166 242 418 186 1214
53 4.5194690689658401 -0.35242922400095844 31.851232758045583 47 41 22 0.30101963823879463 242 1072 186 1216
54 4.4597328557677125 -0.3103310204816685 31.842047745530966 119 113 85 0.1002222550517519 242 432 186 1226
55 5.1489323382127381 -0.23363093542229177 32.3032388361353 64 63 42 0.24836668045863497 242 442 186 1250
56 4.960976754649467 -0.18746223227736528 32.15452378979731 64 56 43 0.098114311121695885 242 449 186 1261
57 4.2128794222934998 -0.10682356754688953 31.536808160921534 103 95 73 0.42839119129690595 242 457 186 1300
58 6.8267794000870801 -0.018861659144597143 33.215702521343111 102 105 66 0.12591655584862038 242 467 186 1328
59 5.9027245903644614 0.027913448486986816 32.679764702479218 105 107 63 0.17462457144015545 242 481 186 1343
60 7.8201238499435179 0.031140774139022154 33.473422337954332 115 117 81 0.017648474802839247 242 1103 186 1347
61 7.8668348589605346 0.17795643744321168 32.972672475202309 55 52 17 0.65562885814259686 242 1116 186 1390
62 3.8707960612449881 0.93028617858287299 15.128816226097419 98 87 93 0.52434744805626399 242 665 186 1628
63 2.2422356324237787 1.0311631066770079 15.354895320165621 69 1 20 0.2042790489310779 242 692 186 1647
64 2.2892920617363415 1.0309194611042032 15.358690514201943 152 71 97 0.64490495393788683 242 689 186 1650
65 2.8782258247007695 1.1543576887425664 15.205630489126037 216 214 230 0.31727775177852602 242 710 186 1665
66 2.8782258247007695 1.1543576887425664 15.205630489126037 216 214 230 0.31727775177852602 242 711 186 1666
67 9.5431279144506966 -4.4128615939493105 33.174681145494318 56 65 74 0.85264177716235579 242 790 186 1801
68 3.3057093032073221 -3.6577396125644559 30.26927990741547 41 37 35 0.048305321612513705 242 791 186 1856
69 9.7246221793779668 -3.9792341113510417 33.366079701524598 201 205 214 0.40918823447515584 242 815 186 1868
70 4.4606437989124954 -3.6891869089825873 31.15822984899836 53 53 55 0.11502258374730495 242 802 186 1876
71 3.8392371812196768 -3.6052425957793082 30.740665258100133 27 21 21 0.22411065222562193 242 801 186 1883
72 4.4540924885731092 -3.6150437586463844 31.259975195873899 19 19 21 0.096406852265259246 242 1283 186 1887
73 10.201968041284541 -3.8218990148414775 33.453400746458904 36 40 51 0.13691558967558881 242 820 186 1893
74 10.201968041284541 -3.8218990148414775 33.453400746458904 36 40 51 0.13691558967558881 242 819 186 1894
75 5.0196522687468024 -3.5270623872577183 31.603216797992548 25 24 29 0.81814885406955296 242 816 186 1903
76 4.9706367580914081 -3.4056072744645816 31.636104981106204 58 57 62 0.028846398522766426 242 40 186 1918
77 4.2050088033629205 -3.060769713849107 31.278141648172493 35 33 29 0.26596977374443853 242 835 186 1971
78 4.740268229876432 -3.0872706231233784 31.671115717839616 74 75 70 0.089616857790286317 242 1298 186 1972
79 3.851033538653919 -3.0033308477126441 31.043037793402359 122 113 98 0.12125885586236471 242 838 186 1978
80 5.4260442867575405 -3.0357855471458617 31.997061415454002 14 14 14 0.12886875275554449 242 845 186 1988
81 5.35223550330352 -2.9729121931308722 31.977370496963204 106 106 105 0.32376787851009381 242 1308 186 1997
82 4.0814543709657132 -2.8681315188308547 31.294841764336446 45 35 30 0.22670701229355655 242 847 186 2007
83 3.9690374187776403 -2.8622877820558537 31.242102294116719 143 132 120 0.42640280916536855 242 846 186 2009
84 5.2875262307597772 -2.9058233038860388 32.008994138675526 18 18 20 0.098793630109034053 242 849 186 2015
85 6.5760142964147805 -2.8470013989812082 32.85470576565622 44 45 39 0.18154784195174298 242 861 186 2042
86 4.29677456208527 -2.6708446509529673 31.487556819920794 42 35 29 0.10599242134705134 242 112 186 2055
87 4.29677456208527 -2.6708446509529673 31.487556819920794 42 35 29 0.10599242134705134 242 111 186 2056
88 4.1917802565847566 -2.5669098722677632 31.384030641767364 73 72 75 0.21669737117823956 242 864 186 2080
89 5.5810048811751898 -2.6198602744057249 32.217431641498671 102 97 101 0.014982315162038682 242 1326 186 2089
90 5.5537942395862263 -2.5498243287523192 32.252480066252375 10 8 11 0.16297389088921221 242 875 186 2101
91 7.2190562922695394 -2.4843085846121449 32.884363180042186 60 56 45 0.14239052351277198 242 1336 186 2109
92 4.5027745733633457 -2.310401179252525 31.652619351570682 15 16 20 0.020923251919508841 242 892 186 2123
93 5.9397190704682084 -2.2752059228353412 32.440209266535234 26 25 31 0.019011824187921432 242 908 186 2133
94 7.267452777697966 -2.2950503349489977 33.148270020581556 28 29 15 0.27622929119251832 242 913 186 2141
95 3.4364064632713722 -2.006214282114656 30.994278916747032 71 67 63 0.36238164868199124 242 176 186 2160
96 5.1574550323994455 -2.0510575155759714 31.99288067812568 44 43 47 0.3893388925913166 242 1349 186 2167
97 3.792306147858818 -1.8598121825424887 31.233026556483523 34 35 27 0.31441483428567607 242 192 186 2189
98 7.4946768283992542 -1.9111187978582374 32.961148391538266 79 82 79 0.13268329813082441 242 1363 186 2195
99 5.7428432936709886 -1.7916370120058103 32.373010589977021 102 101 106 0.077297476969361983 242 1365 186 2209
100 6.336760705137169 -1.7780410527056458 32.586844098575988 105 106 108 0.40849894771852169 242 944 186 2211
101 6.3398749264433514 -1.7932041362155338 32.652049616847293 105 106 108 0.17052579670311574 242 1366 186 2212
102 7.9114734839220668 -1.7088588686964288 33.055026286173081 37 38 40 0.31168731731108434 242 952 186 2220
103 7.5983894474249167 -1.6791223222675551 32.966257145651369 20 21 25 0.38736017420104729 242 1368 186 2222
104 6.6873548577407602 -1.6639600737730167 32.748391832357598 18 17 22 0.12368715680584448 242 953 186 2227
105 8.5991775425820851 -1.4552946041491162 33.140533761046385 22 21 26 0.011888466619545563 242 965 186 2263
106 4.8802252509484072 -1.3491030436631288 32.175620235330854 24 24 13 0.16375007189752139 242 972 186 2274
107 4.6485799298185535 -1.2448089884336784 31.991533112992069 43 45 9 0.1911212955791407 242 286 186 2282
108 3.6232294421313029 -1.1714148514899569 31.208804907744863 116 116 65 0.16186660838182793 242 978 186 2290
109 3.4837254731313552 -1.1518256796478867 31.066955390178983 54 51 10 0.19415245695946304 242 981 186 2292
110 7.1552084379958849 -1.1761028891804559 33.208801124895274 7 7 10 0.27399482719165641 242 993 186 2300
111 3.599167981426493 -1.0941887844278682 31.185191785977693 50 50 6 0.1636571074008813 242 994 186 2303
112 3.8563473548304175 -1.1063224624174566 31.501357349484326 97 103 59 0.45325367856497772 242 1389 186 2307
113 4.9292824644575379 -1.088542214182731 32.239084482734128 48 51 34 0.0056956124490281108 242 1000 186 2311
114 3.9908119086324572 -1.0249012157406354 31.443707458694814 97 102 64 0.27150954237863539 242 1396 186 2314
115 5.1218047093318155 -1.0476774585848856 32.286985143190513 42 44 32 0.48879173803748166 242 1007 186 2316
116 6.1400552132578978 -1.0703270057033203 32.757011579166672 34 33 38 0.045383000206870944 242 1004 186 2317
117 6.6782430310481145 -1.0158469630727456 33.133123353293101 47 50 41 0.30121933362413933 242 341 186 2321
118 6.1534574615402882 -0.90802832260300559 32.912866769181967 30 30 30 0.25278032101884784 242 1015 186 2337
119 8.6660921418466366 -0.86897253904416549 33.56911327245146 70 72 68 0.11721588355547141 242 1026 186 2350
120 8.8925041558629907 -0.85336217621680555 33.421279153853447 89 91 87 0.36655868346168641 242 1403 186 2352
121 6.5828802881157911 -0.8160002158481009 32.995275296308968 64 61 42 0.31054220674484179 242 1406 186 2357
122 4.9427911465521843 -0.7376572912520406 32.228505701355608 60 60 38 0.029450855874254708 242 1038 186 2373
123 7.8698327805374184 -0.76811626803000599 33.409663581837513 21 27 15 0.049496120596976834 242 1409 186 2374
124 5.6623846254791834 -0.71645081705045754 32.658851224463596 55 57 36 0.09769889883209748 242 1039 186 2378
125 5.5420467183832542 -0.70359538301839175 32.587913674816477 111 114 85 0.0044581050824038159 242 382 186 2380
126 6.4335521295574285 -0.59405689093698877 32.987786466101454 115 113 100 0.097307563388354945 242 1418 186 2402
127 7.3185848875071926 -0.4752496171243889 33.4790641010485 54 50 21 0.53442869563337714 242 1058 186 2422
128 3.310247256920265 -0.34937951095268238 30.822907969079559 137 138 123 0.6492851591470854 242 428 186 2431
129 6.7533379610496818 -0.2539378891141319 33.293609186820653 57 54 45 0.27165532700267198 242 1081 186 2462
130 7.6643263818523604 -0.2356526679938917 33.536045604883356 124 127 101 0.080272606492925086 242 1082 186 2466
131 7.4248097828866646 -0.10985781533404547 33.525179430927501 107 108 74 0.22496849301794203 242 1442 186 2475
132 6.5375568141917837 -0.099865878977759934 33.240412475937205 114 113 91 0.85566465956724524 242 1090 186 2482
133 2.589390609460327 0.83282491869201125 15.186959795084324 255 243 250 0.35218815288105065 242 659 186 2646
134 1.0074916885095182 0.866069682616467 15.797687069719421 35 2 3 0.45442067607747227 242 1694 186 2651
135 11.413376091174099 1.1246839642750612 20.2390567672001 104 109 69 0.095075858538571631 242 1184 186 2657
136 1.3309250897077283 1.0462790094015468 15.578679136061609 74 4 20 0.12381202467547264 242 1704 186 2666
137 9.0452675706297025 -4.4885407231423082 33.161261047870589 219 232 238 0.6617976275800137 242 1262 186 2718
138 9.4283440528638831 -4.2597346903221069 33.269622606755775 218 228 230 0.47221208870728093 242 1279 186 2743
139 5.0586735857975791 -3.9269704501765026 31.378262135247571 85 85 87 0.078540940468406678 242 1270 186 2748
140 4.7963771553776011 -3.7748112377803609 31.374933798241265 11 10 15 0.022787219316052935 242 1277 186 2756
141 4.7963771553776011 -3.7748112377803609 31.374933798241265 11 10 15 0.022787219316052935 242 1278 186 2757
142 5.1793806285479498 -3.7189564303213025 31.573428995937768 70 72 69 0.34813292211155511 242 1282 186 2765
143 5.0603056671297484 -3.630290416296027 31.513832439562027 25 24 29 0.092521458183284944 242 809 186 2775
144 10.927588651907206 -3.5321804153761884 33.674913212015987 35 45 54 0.012136453415065611 242 1300 186 2799
145 10.958456950314401 -3.4262471283396487 33.735964748642196 54 69 72 0.027095655585767455 242 1305 186 2809
146 3.9346122641912276 -3.1337421815415412 31.125355247437273 42 35 25 0.32562359218998893 242 827 186 2811
147 4.5078315902420663 -3.1143385151879639 31.383764947351466 33 29 30 0.61340220298746195 242 1545 186 2814
148 12.077171303964919 -3.2634384610750948 32.920361021104071 18 25 35 0.019263765265540956 242 1310 186 2821
149 11.810517445592163 -3.2208542431375804 33.197003559998571 19 29 34 0.64349810113828898 242 1556 186 2825
150 4.7047843223539516 -3.0104664451138547 31.61472851529496 22 21 16 0.017439983587364601 242 1548 186 2828
151 5.4867997893307443 -2.8454006141392232 32.038970648047744 8 8 10 0.31994434888256174 242 1313 186 2842
152 12.070117953293977 -2.9414313709016775 32.938368975900168 8 24 24 0.13327773523490499 242 867 186 2843
153 3.7390073216372794 -2.4028621446583038 31.155972501245827 123 112 107 0.098557768140466878 242 1328 186 2862
154 5.1374953719534924 -2.3853673706109308 32.051791957697695 14 14 16 0.17065381009940134 242 890 186 2869
155 5.1374953719534924 -2.3853673706109308 32.051791957697695 14 14 16 0.17065381009940134 242 891 186 2870
156 4.2238825937694155 -2.266141353111581 31.52390222814094 20 19 24 0.028668927931409141 242 895 186 2875
157 5.6616542430973276 -2.261065095763902 32.281988836626297 36 35 40 0.25498020848627445 242 1341 186 2878
158 6.0304250644152217 -2.1945496278243994 32.60031235754095 28 27 32 0.50216799446592164 242 917 186 2884
159 6.0304250644152217 -2.1945496278243994 32.60031235754095 28 27 32 0.50216799446592164 242 918 186 2885
160 5.5928472380764545 -2.0134883268711414 32.326272589108932 84 83 88 0.0042387242464810414 242 1355 186 2896
161 4.9983497341993619 -1.769551134434644 32.077025092403879 87 86 90 0.056406710277011801 242 1364 186 2911
162 8.1521452902468958 -1.5019806025783637 33.09646169927381 20 20 22 0.14641547645365033 242 1376 186 2932
163 5.010859935845982 -1.3988806885032297 32.307329156565736 101 99 99 0.31635901955958956 242 964 186 2940
164 5.5986505722917856 -1.4045995377505114 32.61975516476145 28 27 33 0.23713406345412569 242 1380 186 2941
165 6.7339297503498781 -1.3717765889751417 32.932135256812373 20 21 25 0.021472872191206173 242 973 186 2945
166 6.1086856311261188 -1.2908570763715252 32.764875147874626 11 12 16 0.044878267872107976 242 1612 186 2948
167 6.07989866992017 -0.9770363688921323 32.874930747877535 82 82 84 0.3096853250086643 242 1012 186 2964
168 7.7680308299749994 -0.98234302128846707 33.27173180657956 57 57 59 0.42585470031659811 242 1013 186 2965
169 8.742789646511806 -0.91641904157376286 33.395666725141389 11 11 9 0.42547123589747471 242 1401 186 2969
170 7.9096394080213468 -0.90507715811796363 33.396761867851687 8 8 5 0.17214861768633516 242 1402 186 2971
171 4.7874367991137241 -0.86787290793526606 32.196742693206822 56 58 49 0.38219959733085729 242 1020 186 2973
172 4.6712053444734396 -0.80533950104956953 31.95834349743086 102 104 103 0.085879811749186796 242 1029 186 2978
173 8.2394106080226877 -0.72200965657852123 33.499314050548037 28 33 13 0.30537720328957563 242 1414 186 2992
174 7.4847353975602511 -0.59185953511144707 33.336655431392188 37 40 18 0.22269672021439441 242 1419 186 3000
175 4.5689146291650706 -0.47702712146911697 31.945456803197008 38 39 7 0.18295965287554611 242 1424 186 3010
176 8.2936211964976909 -0.45345934297623225 33.284380544996907 69 72 45 0.62998706261851178 242 1427 186 3015
177 3.80448018956778 -0.41114954395272618 31.210241239623269 113 113 79 0.11114778844948217 242 1067 186 3019
178 7.6735161082348773 -0.43134012070600403 33.511467126894139 25 29 0 0.073518911932312053 242 1428 186 3022
179 5.3657480739299661 -0.19879207604648652 32.426460333407462 102 104 67 0.081996622173721445 242 1436 186 3042
180 7.5483452504434441 -0.16384762719499041 33.466779018007664 68 68 39 0.38836074762200334 242 1658 186 3048
181 5.8899827704979772 -0.1422641909636583 32.828636867490907 74 74 51 0.078673444305157006 242 1440 186 3050
182 5.8302966957731499 -0.068911067326303699 32.744778965466026 109 111 70 0.061980805151845994 242 1095 186 3059
183 4.4697403497404338 -0.061252577058720392 31.714967647970667 136 133 106 0.17768966860531776 242 1454 186 3060
184 6.681985800608615 0.0078036211039955172 33.169716515676434 56 56 32 0.24528085266809788 242 1455 186 3064
185 6.1305675885695861 0.064534659344909262 32.987622188042373 90 92 66 0.1892382818043922 242 1458 186 3068
186 2.8804592636746289 1.033827472242701 15.285259574251404 157 148 158 0.57233536276350327 242 1699 186 3166
187 1.6414709114198649 1.155248758321533 15.415909914250349 146 10 56 0.0069310291141578481 242 721 186 3168
188 4.7638614078805839 -3.8698031093136951 31.287078019868549 80 79 84 0.050801881921544625 242 1531 186 3198
189 9.6122628190513595 -4.1268370763418014 33.341495495605862 19 25 35 0.34183492889419276 242 1537 186 3199
190 12.073042798721435 -3.4154110763965702 32.813878598830193 55 58 75 0.24943589335908148 242 1549 186 3223
191 12.248329833955133 -3.2204674475337298 32.842859964273245 218 226 239 0.44305655214493223 242 1729 186 3227
192 3.6768590365575347 -2.8991328458527716 30.918567211648607 156 139 119 0.26448614869745468 242 1724 186 3234
193 11.841037553414612 -2.7859915127179127 33.189246330538317 7 16 11 0.41455737043349583 242 1567 186 3243
194 4.9280136627091311 -2.4724414583640306 31.880774585921827 128 129 131 0.22233470536285643 242 1569 186 3250
195 3.7907959375843898 -1.9386066733521312 31.217390258149205 91 92 87 0.099613952423656144 242 1754 186 3267
196 5.4143576479057165 -1.9692616671729017 32.225939391238072 42 41 45 0.15044004761070856 242 1592 186 3269
197 7.5414219722457148 -2.0320806854785252 33.218114504841878 25 28 11 0.2271492507542075 242 1357 186 3270
198 5.6835391083541378 -1.9469096374269919 32.531021956980538 89 88 93 1.0436330872948192 242 1595 186 3273
199 4.841758622177025 -1.8491158377638335 31.965795606290609 66 65 70 0.039361447395159371 242 1597 186 3277
200 6.6567064210139302 -1.811998617191336 32.796375658890106 16 17 19 0.096036681117028788 242 1599 186 3285
201 4.6289331276030934 -1.6806638871426745 31.932258114279961 72 75 80 0.024396451792206706 242 1604 186 3290
202 4.6289331276030934 -1.6806638871426745 31.932258114279961 72 75 80 0.024396451792206706 242 1605 186 3291
203 5.9668663655648437 -1.4741469515577699 32.610364453976011 14 14 19 0.40485340277068171 242 1762 186 3299
204 4.8032719290553567 -1.23279560153513 32.138885165633013 85 85 61 0.58454137832168984 242 1613 186 3303
205 5.8649082291254926 -0.99180166772153366 32.810982714857751 85 84 89 0.14908459807343921 242 1622 186 3315
206 8.0196499131327315 -0.99593454065047327 33.386903679110148 59 59 61 0.10200565905106453 242 1624 186 3316
207 7.5666985390431938 -0.73853832240730277 33.354415860340417 19 24 4 0.077048823925759652 242 1639 186 3324
208 4.890017607347521 -0.65690274975319318 32.217237519371068 120 117 110 0.13776316310602618 242 1640 186 3326
209 5.2942439843567319 -0.60825645167997122 32.513064010558637 61 62 27 0.19872247817057687 242 1782 186 3329
210 4.2534935804480014 -0.52690327807634996 31.642043304360097 125 121 86 0.42545238606673746 242 1787 186 3331
211 4.9046928280880486 -0.47347596483014504 32.173753689858806 66 60 34 0.11016383213947384 242 1649 186 3334
212 4.2888152395131476 -0.33327756728928909 31.669883033355479 45 40 5 0.060927708320979414 242 1652 186 3338
213 6.9697940009720281 0.019873194524632268 33.29808036219675 71 75 40 0.2282706653120638 242 1456 186 3365
214 7.4316839051389412 0.16361043637271561 33.325107664194668 65 71 37 0.21092899943192928 242 1675 186 3370
215 10.903829742375564 0.89044261960681537 20.507843396476567 2 7 0 0.49165743781000326 242 1686 186 3409
216 1.0706701992737757 0.98406864693521934 15.670571468619265 156 161 173 0.10600603258141969 242 1822 186 3422
217 9.2494268328729152 -4.1960692360598868 33.314975200564866 13 24 22 0.17456775070215819 242 1717 186 3444
218 3.856023642150324 -3.8187897236358617 30.703224561823795 36 38 35 0.49083118986434487 242 1715 186 3446
219 10.26639202235606 -3.6809232084491494 33.534482303857331 30 39 47 0.10096153261110291 242 1542 186 3455
220 4.3902759075268802 -3.0092960815758931 31.310526811074961 117 108 109 1.134231144127845 242 1546 186 3459
221 4.3902759075268802 -3.0092960815758931 31.310526811074961 117 108 109 1.134231144127845 242 1547 186 3460
222 12.207309513450674 -2.8647852408429979 32.840441988881807 63 84 109 0.084351654065787346 242 1732 186 3470
223 4.5064384928258097 -2.6562179083345563 31.637139654889072 117 111 107 0.1866703396668476 242 1731 186 3473
224 6.9905552942565148 -2.4999486938227489 32.916259602072792 44 44 33 0.018608393550087518 242 1741 186 3484
225 4.3806716907274819 -2.1662108505443323 31.674934271765984 21 22 24 0.21858520067040443 242 1748 186 3488
226 8.1541904031092933 -1.9677311106264188 33.096263946433879 14 17 4 0.11338313582796089 242 1756 186 3496
227 8.2377798177742765 -1.8225878836070162 33.032646635261898 86 91 87 0.36117406284798698 242 1758 186 3499
228 4.8686714020343471 -1.4841082787301734 32.158126153593273 5 6 11 0.096350562109461996 242 1761 186 3503
229 6.5636984074256253 -0.91407346895433683 33.094885159131046 21 24 7 0.1772438506110213 242 1776 186 3520
230 6.5636984074256253 -0.91407346895433683 33.094885159131046 21 24 7 0.1772438506110213 242 1777 186 3521
231 4.3562703078323661 -0.83651237646532695 31.783817367724239 42 36 10 0.067816307082476907 242 1779 186 3523
232 4.3562703078323661 -0.83651237646532695 31.783817367724239 42 36 10 0.067816307082476907 242 1778 186 3524
233 7.2842751220611435 -0.84370834782377335 33.29685278634765 73 76 59 0.02216355650799031 242 1630 186 3525
234 7.2842751220611435 -0.84370834782377335 33.29685278634765 73 76 59 0.02216355650799031 242 1631 186 3526
235 7.1035364961962939 -0.73732404061360057 33.381294709804472 28 27 9 0.054029275189908778 242 1781 186 3532
236 8.4314489567479285 -0.37245303221453874 33.237786509497461 12 17 1 0.86469008800371039 242 1869 186 3542
237 4.0532717463397807 -0.3060084447569319 31.550375934345755 104 105 74 0.063022763602288548 242 1793 186 3543
238 5.17524365072601 -0.17798840104013544 32.424694541784106 66 64 42 0.070414180086319111 242 1795 186 3549
239 4.6299124898933055 -0.11047746073622823 31.8331482296114 62 64 24 0.30232058978250242 242 1663 186 3554
240 2.4582148812443472 0.81421426349119308 15.024574158494028 246 235 250 0.34243264711686527 242 1815 186 3583
241 2.7433565004443223 1.0730094583416367 15.2660003562998 113 115 127 0.11160621002075284 242 1702 186 3590
242 1.6302844153239924 1.5654824351015542 15.533975930662457 7 1 3 0.19850354767866643 242 1826 186 3596
243 3.6908469166565765 -3.6956460668839575 30.619720835728618 67 63 62 0.04516145634214664 242 1828 186 3604
244 4.1078131578036992 -3.6611293158764906 30.893860324181858 12 12 13 0.020374553741291587 242 1900 186 3605
245 5.2612077213860289 -3.1804653959928046 31.925688114185913 8 9 11 0.087592468523859185 242 1834 186 3618
246 3.5478964389998797 -2.7712050919774365 30.951491306611626 83 66 59 0.15352288261308056 242 1837 186 3624
247 3.9665144780254691 -2.7938420774280353 31.310962677834066 145 132 116 0.11231219279354823 242 1839 186 3625
248 6.4782764967617759 -2.9387625040875998 32.840965952288457 42 42 36 0.098736424583514795 242 1841 186 3626
249 3.6681239080287948 -2.5727387443512351 31.024763184708842 142 126 112 0.10843930695534706 242 1844 186 3631
250 6.1619209586626109 -2.3099280442980503 32.566550179384883 91 90 94 0.6179235403283343 242 1747 186 3637
251 6.2538374966852128 -1.9783646163848978 32.612916338761217 80 84 83 0.069948177857964866 242 1855 186 3641
252 5.7724188120643296 -1.8476286768863472 32.471918199904898 89 88 93 0.25787779896332008 242 1856 186 3643
253 4.0449894695164206 -0.73055500273275653 31.465257221388221 132 127 97 0.13684962313891147 242 1863 186 3658
254 7.8174859963877887 -0.63633588891934745 33.487623389572036 91 95 94 0.039607635371894226 242 1864 186 3660
255 3.9048996781833138 -3.1972961031621456 31.03890865280216 61 53 51 0.086365024995372797 242 1905 186 3711
256 3.9048996781833138 -3.1972961031621456 31.03890865280216 61 53 51 0.086365024995372797 242 1906 186 3712
257 4.1068708073044355 -2.9623538996337411 31.266798037448318 52 51 48 0.073818051912617338 242 1910 186 3718
258 5.0901302176325576 -3.0007439588881386 31.845205635666439 90 86 83 0.096295242451511054 242 1912 186 3719
259 5.6173741689268191 -2.714071093677656 32.200765337965798 84 82 85 0.24007065373016334 242 1915 186 3722
260 6.5749017792216167 -2.0598798741235496 32.650854185629584 11 17 5 0.58828767363827961 242 1921 186 3733
261 4.1000518263091328 -1.4802010319981147 31.475340286016923 15 23 2 1.2278327458029492 242 1857 186 3746
262 7.8499273256102864 -1.5163449346301259 33.02142590828749 74 74 74 0.32830166274369832 242 1924 186 3747
263 7.0061869116542859 -1.3173783928458558 33.006409877381834 78 77 82 0.033944380862521731 242 1925 186 3750
264 6.3960668523107866 -0.58714144777762889 33.077174306231825 114 112 97 0.55964663748827159 242 1865 186 3758
265 7.7314101304214962 -0.37918472825064542 33.437890149025364 31 37 9 0.12660287111895249 242 1932 186 3760
266 10.965432982153693 0.98318798027627019 20.643026326362083 32 54 18 0.50929311895927265 242 1889 186 3788
267 1.3423567798625893 0.97690645245453689 15.587323028969466 114 122 134 0.53252695947533457 242 1988 186 3794
268 3.5747118243206324 -3.3271857390700008 30.656131504579328 140 127 116 0.25748481467475737 242 1949 186 3805
269 5.2583401109796943 -2.42602273741949 32.064371485730504 36 37 39 0.34080201951122402 242 1960 186 3817
270 4.3743020394873007 -2.2136541823801905 31.637169718438429 28 29 33 0.13334917558572312 242 1963 186 3820
271 5.2473536808207273 -1.9076299394454657 32.187100412113075 44 44 46 0.33197612135162091 242 1965 186 3824
272 8.5187824122805083 -1.6520798452152636 33.085479864041247 99 100 102 0.55826751380390582 242 1923 186 3829
273 0.9795703405664824 0.95344041331239038 15.777280216619976 64 63 77 0.37702666111160182 242 2025 186 3852
274 2.5180819602702535 0.9329873015490292 15.227891313901903 77 0 0 0.38546939936209518 242 1982 186 3853
275 4.7687537529196105 -3.1842758099071151 31.472293671805975 42 44 41 0.32822740103123382 242 1991 186 3861
276 6.845675735972983 -1.5877132381035646 32.460825546657354 45 46 50 0.0077923934481152176 242 2002 186 3868
277 5.8228400082329514 -1.4733913556845062 32.550059035748376 27 26 31 0.44009049968063008 242 2005 186 3869
278 7.3818317093663284 -1.1148977674771177 33.229394303225035 21 24 25 0.69910109209437232 242 1967 186 3871
279 8.5774390106068132 -1.0201956502404375 33.365050717316144 60 60 61 0.31888879789400404 242 2009 186 3875
280 10.985214295242189 1.1573338235573718 20.764116544074465 11 19 4 0.43705031633076696 242 2020 186 3893
281 6.0691618102256033 -1.8514732154700138 32.63185537375697 59 60 62 0.44932293439814364 242 2041 186 3903
282 7.0207583511284772 -0.90004759715551719 33.327350833883486 18 22 5 0.57902982013002269 242 2056 186 3928
283 8.8396963192825702 -3.9169350229662339 33.396564963935539 16 24 9 1.2676613331317625 242 2069 186 3934
