# 3D point list with one line of data per point:
#   POINT3D_ID, X, Y, Z, R, G, B, ERROR, TRACK[] as (IMAGE_ID, POINT2D_IDX)
# Number of points: 106, mean track length: 2
1 12.776861981856715 -2.307791667734691 30.489809153846572 25 27 35 0.72388697784684986 282 195 261 10
2 12.607432015002562 -2.172183071643127 30.552646128866524 13 12 13 0.54874026481405791 282 26 261 11
3 12.607432015002562 -2.172183071643127 30.552646128866524 13 12 13 0.54874026481405791 282 25 261 12
4 12.499324803515954 -1.096465505898776 30.526314901636088 219 219 221 0.45152543905588383 282 32 261 16
5 13.70772013781397 1.5779188544470804 30.382393359881188 255 251 237 0.10354010656388532 282 38 261 22
6 8.789407973184856 3.4321689758842178 30.799994122567362 26 28 23 0.65622728615641845 282 47 261 31
7 5.9812230289523765 5.7181662614231126 32.406492207636909 41 34 21 0.10176657121066926 282 213 261 35
8 3.4943502630918948 7.0873600466842479 31.325817039856052 238 226 214 0.45611285601423601 282 64 261 50
9 11.073649958889435 7.068565821920247 30.645989424171351 219 217 218 0.051198409369502783 282 221 261 68
10 3.8194032782102263 8.04377217817804 31.034234557319298 15 18 28 0.18138269343803387 282 232 261 83
11 3.5038195815585165 8.5100904480962409 30.749725004270807 25 32 42 0.056378100840179746 282 242 261 96
12 4.1205425032539305 8.5655514203249137 30.755020886321635 142 152 175 0.13018137179112177 282 115 261 97
13 3.8396221027911865 8.6224422862405259 30.718732106391304 24 32 34 0.18170073952677054 282 243 261 98
14 11.497829132557706 8.0505991124798797 30.727753204797494 168 143 112 0.16741782273329414 282 81 261 101
15 3.8583693163639272 8.8094476785811722 30.640733022499017 182 192 213 0.13824849350013024 282 245 261 104
16 3.8583693163639272 8.8094476785811722 30.640733022499017 182 192 213 0.13824849350013024 282 246 261 105
17 4.6297970819060499 8.8003036314126462 30.620719565701954 241 253 254 0.076507130672873652 282 120 261 106
18 5.0616638886449516 9.3429495143207806 30.382571058845361 196 209 233 0.11855154684534498 282 131 261 113
19 8.8226644727977686 9.4562462996539978 30.551493323753508 36 19 1 0.16865224199606654 282 127 261 118
20 9.3194934262850087 9.3817266052070778 30.32888828073829 215 136 44 0.34238491430950851 282 128 261 119
21 14.422802191784223 9.2610159986776743 30.229619515748151 108 47 3 0.3546983901600228 282 247 261 122
22 14.261574821721927 9.6494844160958735 30.162652060492807 106 47 7 0.87435008896206678 282 250 261 125
23 4.5395037818169151 11.605922488431526 29.496888361542467 33 22 11 0.10392159461752573 282 150 261 135
24 14.27490081127748 12.947537747517021 30.257840000920762 88 20 0 0.98794129114673235 282 151 261 154
25 -7.189509338845256 16.816529233007135 35.554905387952246 143 87 50 0.016968692352122956 282 270 261 161
26 -7.189509338845256 16.816529233007135 35.554905387952246 143 87 50 0.016968692352122956 282 271 261 162
27 6.0702955565451688 15.313843247562309 29.078487423324386 115 121 122 0.49663906969281191 282 179 261 183
28 -3.2771490764652738 -9.2753461245224127 30.592370017478729 213 166 148 0.038082862586875411 282 7 261 192
29 12.966205002097453 -2.4000778911575749 30.561526255387619 209 211 210 0.70350425519851434 282 22 261 195
30 13.062226843293862 -1.449333683591117 30.477554765237752 196 165 66 0.60489109668206686 282 29 261 196
31 13.192076607445168 -1.3232602060540526 30.504098811225049 38 19 8 0.0099812959187299578 282 30 261 198
32 11.640784371085509 3.0501860568460377 31.220976423657774 178 178 188 0.051322610184189384 282 46 261 206
33 6.190935471622927 5.9524434698250728 32.378368937604158 114 105 98 0.11195438316324656 282 52 261 213
34 9.1027146226804572 6.7958548912216958 30.635682727674268 154 201 235 0.61061839515502747 282 297 261 218
35 9.3317776995427355 6.7504154846061537 30.445511046148695 159 211 250 0.2190677324798242 282 217 261 219
36 11.007607222011069 6.9460241592015572 30.773701979983898 16 6 5 0.085073968051723001 282 298 261 222
37 11.545177131675993 6.9594473643131902 30.595445101732647 1 1 1 0.25528575583539859 282 218 261 225
38 11.424761848102403 7.1183862362308066 30.632020319472318 240 246 242 0.14357750902291805 282 222 261 229
39 11.509068886516419 7.6598917467680883 30.750463195541879 241 239 232 0.20292920071501191 282 67 261 234
40 4.0590283409205155 8.3880404817759455 30.826022584367532 15 22 28 0.13392904785559298 282 238 261 236
41 10.628115827387067 7.9542004037542853 30.853058645556612 33 12 8 0.15690056385238521 282 227 261 237
42 10.715192204008414 8.3029787727639519 30.733084571561882 49 2 0 0.17966956001996559 282 303 261 242
43 4.041878491030678 8.796260064000629 30.686316828189934 20 29 46 0.20021532248389787 282 244 261 243
44 1.9945895602260835 10.294572254876259 25.522472174111545 223 153 69 0.32816818692445326 282 356 261 265
45 14.321173777477139 11.076243943872262 30.206148681306569 130 62 6 0.40267880389838351 282 138 261 266
46 2.0103508417957552 10.78413399442368 25.638030887264659 91 40 11 0.059914846751902034 282 161 261 269
47 9.3303997277912867 12.082648226941267 27.766451516040657 48 57 64 0.44559124640416453 282 159 261 274
48 12.42481067615015 -0.76091072315840358 30.528152312905068 13 12 12 0.19536090126089029 282 198 261 295
49 3.713559471177831 2.020849537680482 32.095284596416271 24 23 26 0.31447329678848213 282 291 261 299
50 9.1899244891712044 7.1039997348200536 30.505274953892386 185 227 252 0.85037987829411255 282 299 261 305
51 10.892239554673182 7.4338466066284594 30.79821096498415 251 229 192 0.34272777382998471 282 223 261 309
52 9.2061125946125415 9.0399894310990643 30.527817073877763 37 24 5 0.35804383292550146 282 308 261 318
53 10.259331264775163 9.2991037177248881 29.946015750994317 240 227 234 0.1628019264015797 282 310 261 321
54 14.372771493610276 10.132027220582591 30.010228219882205 12 13 15 0.31935830475420024 282 314 261 323
55 14.372771493610276 10.132027220582591 30.010228219882205 12 13 15 0.31935830475420024 282 315 261 324
56 11.774286745097069 2.5150269848303872 31.254942959659438 1 1 5 0.098544534355610502 282 331 261 348
57 10.575290863451166 7.2026015397261203 31.446033488959891 234 232 220 0.31363649223695511 282 376 261 353
58 4.894739973956308 9.5480715187843685 30.36046757982848 25 25 27 0.061073161625685296 282 350 261 364
59 14.301034829559558 10.76788322323395 30.208285846707728 17 11 13 0.47477095747301495 282 384 261 367
60 7.6406393215885062 11.606369105138238 29.338556953948185 185 114 26 0.30211148727389847 282 410 261 369
61 12.225115295591786 1.8581292145814137 30.338363620780569 192 197 201 0.6994340547478255 282 367 261 379
62 12.799941098117641 2.1533234262868199 30.766349897298706 186 144 103 0.31240847824856099 282 368 261 380
63 4.3420088792411677 4.744536259611241 32.556457770432218 236 205 162 0.29754704629053585 282 373 261 384
64 8.3517342813085609 7.0539510236558796 31.756815264090211 42 39 44 0.23138266765600934 282 403 261 394
65 7.5523961794770926 7.627738575423364 31.72426949165262 239 200 43 0.16612492484818447 282 378 261 396
66 4.7038580265434486 8.0220976658180376 30.998979439516273 46 42 56 0.014748646272375696 282 380 261 397
67 5.0849344684514817 8.1974134296759207 30.914953754488781 39 39 37 0.085139211705908865 282 381 261 399
68 5.5382735716160285 8.4657382791367688 30.826693880423363 57 60 75 0.25503231128456294 282 383 261 400
69 12.951929751103462 -0.81903444000903158 30.546291068443129 252 210 149 0.14003667767750988 282 365 261 407
70 2.0121114213303448 9.6851989649768004 25.523123153159769 232 159 51 0.58319904555771063 282 412 261 423
71 8.7947188603500237 4.0401474675780102 30.862481551226431 10 8 5 0.33386385891872816 282 419 261 435
72 6.1252010126857659 5.2155205858095934 32.400910275527949 247 222 182 0.018123444385618713 282 421 261 436
73 8.3152713054610174 7.8197822308291309 30.861013384605339 250 215 131 0.056029535163277584 282 427 261 438
74 14.22757806707485 11.514474834493198 30.334643092370392 135 65 0 0.34163685154452633 282 453 261 443
75 5.9452443199153713 11.943631013284056 28.996579117458499 249 254 255 0.70420743406781861 282 435 261 444
76 8.6400640516970313 11.789776002489324 28.830522480452448 36 55 79 0.84650237115495752 282 434 261 445
77 12.916682336988758 -1.8575595502519338 30.554734049029705 4 5 6 0.53182367864697133 282 438 261 449
78 12.551618951400659 -0.45839090922958142 30.466868989623464 20 19 22 0.095669140949164649 282 441 261 450
79 12.551618951400659 -0.45839090922958142 30.466868989623464 20 19 22 0.095669140949164649 282 440 261 451
80 11.202354302027857 2.3505978264035892 31.720588571274305 139 156 176 1.1767187623396838 282 442 261 454
81 5.2456901089661088 2.9801423465775456 32.644303410113281 24 24 26 0.25476966502311332 282 445 261 455
82 5.7012881592533793 5.8862493812427452 33.110916658531856 54 54 52 0.67027770005768605 282 459 261 456
83 10.002769155014875 5.8060943935732121 31.789696121282478 187 182 176 0.32347761351162618 282 451 261 457
84 10.757450403823391 7.1857875847269632 31.13261766101213 244 236 225 0.38855851403253816 282 461 261 458
85 2.1500058182753246 10.037148346959693 25.446841936434645 228 156 48 0.15441720453363533 282 464 261 459
86 11.904976007387798 2.3066594185069245 30.740045270228247 11 10 14 2.489831509421693 282 470 261 462
87 11.904976007387798 2.3066594185069245 30.740045270228247 11 10 14 2.489831509421693 282 469 261 463
88 9.945339765872653 7.8302718523987815 31.070925702501626 33 38 41 0.63640340255033201 282 462 261 465
89 11.163347146681858 7.8794796409665766 30.854775602496709 4 9 5 0.18666523903444177 282 472 261 478
90 10.14237167233235 9.2166695833916261 30.279305941298428 242 232 230 0.35898935062406356 282 474 261 479
91 6.2686519550141924 9.7861380502490256 30.485722011691756 196 195 203 0.24690385292690845 282 475 261 480
92 13.077744225103288 1.4890174839529435 30.607851043661046 254 255 255 0.72101136790907372 282 477 261 484
93 9.1614130758402741 5.8917157347187725 31.112072630951491 244 228 208 0.023440769742210574 282 489 261 487
94 8.8140685306468196 8.3497702768269768 30.634019620672298 23 21 6 0.46737677030397307 282 493 261 489
95 9.9554532322325997 9.783500775153108 30.185208692342556 238 221 222 0.96602698415111421 282 501 261 501
96 5.4237728537752528 15.393545899224137 28.941041321543693 0 0 0 0.44620614180041329 282 499 261 502
97 8.2531938424145448 -6.4995772080264658 29.678634505640417 1 1 1 0.98385123431075927 282 486 261 503
98 8.8502265862962606 11.588146772213662 28.198765871272538 26 39 56 0.17802283015903847 282 502 261 506
99 8.8502265862962606 11.588146772213662 28.198765871272538 26 39 56 0.17802283015903847 282 503 261 507
100 8.1339634993548717 2.1559509519995963 30.993556013823916 0 0 0 0.72653105821418396 282 506 261 509
101 8.1339634993548717 2.1559509519995963 30.993556013823916 0 0 0 0.72653105821418396 282 505 261 510
102 7.2076458981263265 6.7201771384026872 32.297916911004179 253 248 161 0.064966605072574263 282 507 261 512
103 10.387556544882642 -1.1006536006706384 30.666510829938073 215 210 206 1.1669664632536847 282 511 261 515
104 -3.7957267361218903 -3.8675022403931432 25.112749161164913 4 4 4 0.085391286845689668 282 513 261 518
105 5.89056380381039 9.9451290706276829 31.03485655004544 204 203 211 2.2262895264185856 282 515 261 519
106 6.078192120640078 -2.8347523396783241 29.530512909464647 0 0 0 0.47153776994172497 282 514 261 520
